# 3D point list with one line of data per point:
#   POINT3D_ID, X, Y, Z, R, G, B, ERROR, TRACK[] as (IMAGE_ID, POINT2D_IDX)
# Number of points: 373, mean track length: 4.4501449275362317
5775 -0.66191466520293807 1.9471648991469814 1.3452116530029081 100 81 23 0.13998190350612827 26 2571 60 2528 53 2620 88 2278
5776 0.31764390046561408 2.1575192166032329 1.8741411639920065 222 204 163 0.25087887347452076 26 3043 60 2584
5778 0.62649044183312241 2.2334818258459315 1.875480787232632 41 32 33 0.39019838072361646 26 2761 60 2620 53 2568 82 2357 34 2228 78 2228 54 2315 4 2114 43 2307 59 2011
5779 0.62714175490968993 2.2384816107218728 1.8772614354443278 41 32 33 0.17416194738867027 26 2762 60 2621 53 2569
5780 -0.034013164616427866 2.4087839464743119 1.737942075241671 63 69 69 0.84713701560970101 24 2381 60 2644 53 2612 15 2021 26 1534 70 1322
5781 0.56391945754371253 2.2528665204011551 1.8495504462653389 40 32 33 0.3976394892398718 26 2777 60 2650 53 2583 82 2379 34 2232 5 2328 78 2247 54 2320 4 2137 59 2029 21 1908
5783 -0.87539757998860623 2.6892740669487893 1.4004392085815753 95 101 96 0.27027797055787439 26 2781 60 2675 88 1969 68 2139
5784 0.35215786192454956 0.74459951881278641 1.6047285746487052 144 127 35 0.1104443395559867 26 2826 60 2725
5785 -0.052987467383023637 0.99811491503494831 1.7795257495372443 188 192 215 0.15586752554178521 26 2843 60 2735 53 2743
5786 0.60644448450705302 0.9482053608999218 1.9459302173623361 198 122 26 0.37569845783820849 26 2868 60 2744 53 2708 43 2668 32 2674 76 3053 25 3032 100 2602 39 2496 80 2800
5787 0.6871529670491715 1.0033150071323167 1.8850665292961579 255 232 77 0.13318605960005972 26 2902 60 2769 53 2728
5788 0.70368984285014813 1.1435714014707983 1.677521756197967 214 127 30 0.46406446567755005 40 3289 94 3412 60 2826
5789 -0.22198380677939769 1.6181746267671153 1.7443976270940391 127 99 32 0.47425568901154014 26 2981 60 2847 53 2493 32 2346 11 2639
5790 -0.87030250751900162 1.470077950911796 1.2646689170912178 255 225 71 0.68021236803138396 64 2906 60 2851 53 2876 82 3049 34 2968 5 3052 78 2977 54 3133 4 2895 43 3117 59 2702 88 2604 68 2481 32 2826 11 2645 21 2347 44 1794 92 1746 76 3136
5791 -0.72765362335350203 1.4849509186621659 1.25717799935735 170 129 45 0.055891974740190704 26 2979 60 2863
5792 -0.052899385415572459 1.5779231500113164 1.5140051602941917 73 74 60 1.2427563278418814 26 3167 60 2879 53 2855 34 2233 5 2297 54 1755 43 1806 68 2229 88 2195 32 1142 44 1885 92 1488
5793 -0.80949352762824878 1.8699444084759358 1.2919848025221965 78 97 134 0.82603236879043163 7 3141 60 2893 53 2625
5794 0.27494686522155048 2.0004371662084823 1.8456673143917124 208 192 154 0.4855351238889678 7 3375 60 2903
5795 0.31188846539951887 2.1271533483694514 1.9031678619151819 210 194 158 0.2594730140436976 26 3042 60 2909
5796 -1.1461614291186331 2.4828848970104058 1.7242820506541245 75 80 79 0.35138253868848901 26 3191 60 2912 53 2903
5797 -0.6345667284635127 2.1225858357046712 1.408854529107876 5 5 5 0.89081987852669631 26 3209 60 2921 53 3097 59 2743
5798 0.4463205241539776 2.2677708193801407 1.8708582560417868 139 90 65 0.68656055227019019 26 3053 60 2924 88 2700 68 2919
5799 0.097474784037242801 2.3595739751125939 1.763100810819624 57 44 41 0.71511848640273923 7 2878 60 2927 53 2891
5800 0.21455852866275141 2.3591032675352683 1.7040952762871269 88 64 54 0.17995396914787543 26 3232 64 3008 60 2933
5801 -0.51987188280690155 2.5574346698618529 1.516947199961826 52 42 42 0.65876004690347711 64 3056 60 2936 82 2838 34 2753
5802 -0.29172943090893888 2.5612428618581862 1.4986806079707531 33 29 34 0.27338453928826162 26 3074 60 2941 15 2310
5804 0.11373934348251351 0.75254340983008472 1.9925708526301433 155 131 38 0.71457995498448534 26 3079 60 2948 53 3112
5805 0.23672343462241857 0.77411319551313151 1.6709314477407409 119 92 29 1.4636888876962237 26 3099 64 3097 60 2963
5806 -1.5378513584119056 2.1039675513228699 2.2636248609010843 151 101 77 1.1248599788191822 55 3483 60 2987 53 3224 82 3220 34 3278 5 3373 78 3232 88 2923 68 2988 11 3239 44 2589 92 2516 86 3117 84 1772
5807 -0.21075164642574459 1.5471966907466062 1.8407410681887477 171 141 48 0.34704216762482237 26 3127 60 2999 11 2900
5808 -0.1831273201474107 1.5843902621679562 1.7974338942837802 167 137 47 0.17578430331937669 26 3133 60 3004 53 3194
5809 -1.2445408655896826 2.4193158548141884 1.786432206007835 134 133 123 0.70102815309040079 26 3173 60 3052 32 3303 25 3646
5810 0.8464633081562124 2.1060283497472221 2.1006943471662285 222 207 168 0.19612938043135206 26 3215 60 3062 53 3044
5812 0.59924688671634407 2.1957137470175936 2.0083235519274547 218 199 160 0.79841800274798624 26 3221 60 3074 53 3062 82 2972 34 2611 5 2652 78 2601 88 2678
5813 -0.8345465531493037 2.6654200891905022 1.5658674399859793 113 117 111 0.53626180696183345 26 3230 60 3099
5814 -0.74336616078011242 2.7004944199830669 1.3535092585255175 120 83 65 0.823259704455931 26 3236 60 3102 53 3105 54 3369 43 3275 88 2775 68 2825
5815 -0.8658105635472213 2.7359348572915527 1.3003582563993112 128 88 67 0.96629197238654085 26 3235 60 3104 53 3107 82 3238 34 3197 78 3229 54 3380 4 3120 88 2782 68 2816
5816 -0.80450031926689913 2.7188733085349797 1.326598930021867 127 86 66 1.0978568985765902 7 3396 60 3105 53 3106 34 3193 54 3374 88 2778 68 2822
5817 -0.86704173265977991 2.7781589814167429 1.2724816919504776 139 96 72 1.3772389807640044 26 3238 60 3108 15 2231 34 3198 78 3231 54 3381 4 3122 59 2997 21 2946 70 2183 47 3081
5818 0.18072852477574694 0.80330691553839129 1.6952171450260218 31 36 45 1.3621530836886333 60 3119 53 3126 82 3119 34 3068 5 3179 78 3102 54 3233 4 3010 43 3184 59 2602 88 2831 68 3075 32 3197 11 3118 21 2584 47 2786
5819 0.28542775082494781 0.83543876376693749 1.6763067021357949 47 50 64 0.28255330070238605 26 3249 60 3120 53 3127 88 2939 32 3192 11 3111
5820 -0.81277941702956791 1.8045189512613045 2.4744270929780252 109 74 61 0.30083918152256595 26 3251 60 3130
5821 0.28832752033929004 0.92130154100731365 1.5209804421628843 24 32 44 0.22008404368535675 26 3260 60 3132
5822 0.36184386062504248 0.92269667340470229 1.4896405811659712 112 91 22 1.0651570308463612 26 3266 60 3139 32 3176 11 3241
5823 0.72038575610977962 1.0303212082227278 1.8542896577596226 255 233 68 0.4124997640169325 7 3422 26 3267 60 3140
5825 -0.99282036255215134 1.4186599931889432 1.3667520853679915 255 231 73 0.39596119415893105 26 3263 60 3153 88 3014 68 3144 92 2497
5826 0.31617555009286735 1.6277256081656837 1.7483767629177245 229 209 165 0.9816848682978272 55 3477 60 3170
5827 1.0819946329010808 2.0225297102321402 2.2388946182388443 236 219 180 0.2678122179582057 7 3584 26 3391 60 3246
5830 0.74034222481012912 2.2248801549693598 1.9065254933258216 98 68 57 0.54740216807199427 24 3618 60 3280 70 2907
5832 -1.0183277961841133 2.6779081524946315 1.4445564943850444 130 131 123 0.67098835166066184 55 3761 64 3552 60 3298
5833 -0.52365160625778828 2.6483986327935343 1.3961323176677332 99 69 56 1.2994923298063836 26 3418 60 3303 44 2433 92 2335
5834 -0.80653877081184633 1.3518327357572397 1.4384921026372797 255 232 72 0.067188704735129778 26 3438 60 3316 68 3155
5835 -0.93142895875590948 1.390593827339683 1.3851578564755411 255 235 72 0.29365023565902038 26 3437 60 3318 53 3333
5836 -0.7128861276419427 1.3664923040063492 1.4139789291450711 255 235 73 0.5492574368915667 26 3442 60 3319 53 3325 82 3285 34 3245 78 3269 4 3162 54 3430 88 2994 68 3162
5837 -0.49590002123878141 1.6148250434438307 1.9260573871408087 116 64 6 0.99810934757712844 26 3447 60 3323 53 3302
5839 -0.61637162891527686 1.3755739377846541 1.3814731959316144 255 234 73 0.52225590764135454 26 3455 55 3621 60 3327 53 3326
5840 -0.60354446744873214 1.537328254370482 1.6583809818165047 255 237 73 3.244429554697426 26 3457 60 3329 53 3312
5841 -0.11609175936824573 1.5681250711565149 1.8231965240829902 201 175 60 1.146015989037205 26 3466 88 2965
5842 -0.68039738046547715 1.401666290885812 1.3613354908243451 255 234 72 0.10596813026487914 26 3453 60 3338 53 3336 68 3167
5843 -0.062775197287372186 1.4815549081808983 1.6099791304911295 205 176 58 0.25102172399866607 26 3473 60 3339 53 3307
5844 -0.92552098711559294 1.4792316644236807 1.2593626238834568 255 236 72 0.96792068470351633 26 3461 60 3344 53 3352 82 3307 34 3260 5 3350 78 3282 54 3444 43 3380 59 3037 88 3017 68 3148 32 3362 11 3132 21 2970 76 3589 25 3577 45 3149 100 3187 39 2712 80 3396
5845 -0.92560529536574665 1.4778274371176494 1.2554462102666124 255 236 72 0.37482799178124432 64 3514 60 3345 82 3308
5846 -0.37320663363337092 1.7034792084991153 1.6370888649378001 251 207 61 0.10386737689439385 26 3481 60 3358 53 3330
5847 0.2255214546877638 0.80346834203401263 1.656603793737039 210 220 248 0.46860222395744833 26 3506 60 3376 53 3376 82 3247 25 3738
5848 0.28939511793875305 0.87265616970357485 1.5547342371943818 215 223 250 0.18010646817097856 26 3511 60 3379 53 3380
5849 0.76991887885090693 1.0448757884792836 1.8270971911085572 0 0 0 0.37283201167382529 26 3521 60 3388 53 3377
5850 0.76991887885090693 1.0448757884792836 1.8270971911085572 0 0 0 0.37283201167382529 26 3522 60 3389 53 3378
5851 -0.48406302598517936 1.5425331362957238 1.9551676835035765 255 213 66 1.5243768779910691 26 3514 60 3390 53 3396 82 3365 34 3314 43 3462 32 3484 11 3373 92 2805 44 2878 76 3826 25 3796 45 3680 86 3229 100 3731 39 3488 80 3884
5852 -0.43636655499701327 1.6022632647463446 1.6618187543930951 228 179 51 0.90232713287600586 60 3400 53 3408 88 2974 68 3028
5853 -0.097529262719206811 1.5568662136380298 1.5409419561168221 204 177 59 0.34670357418788428 26 3542 60 3404 53 3412
5854 -0.34112106161261768 1.8873755441961759 1.4960800493631192 158 167 195 0.36589076333254239 26 3547 60 3416 82 3291 53 3419 34 3247
5855 -0.55138116563450312 2.3531210252717472 1.5747681698954423 52 61 79 0.88732908123959553 60 3425 93 3798
5857 0.35620851632693062 0.91104774095106311 1.5501736757265951 96 77 22 0.28988759663893721 26 3578 60 3445 53 3439
5858 0.85449107407032965 1.0593737801682979 1.7942551832587181 175 116 35 0.23134564119053244 26 3584 60 3448 53 3437
5859 0.85449107407032965 1.0593737801682979 1.7942551832587181 175 116 35 0.23134564119053244 26 3585 60 3449 53 3438
5860 -0.55410320820831838 1.6126886525444664 1.7727689423828015 45 45 49 0.77281748407998829 26 3583 60 3452 53 3401
5861 0.34443227317131242 1.2343853908266895 1.592330109441545 66 72 93 0.72053555122653068 26 3588 60 3456 53 3392
5862 -0.11071159304286207 1.0168773555553781 1.8919448680129027 239 205 67 0.25241751522528111 26 3617 60 3470
5863 -0.10951161182135219 0.99562526641604998 1.8514583384952181 239 205 67 0.68645277646043246 7 3774 26 3616 60 3471
5864 -0.52434804481416786 1.8074724997632217 1.4430817071866955 53 50 53 0.24676860098227843 26 3613 60 3481
5865 -0.37816737375791898 1.6050140434794389 2.1389865805094437 40 35 35 1.4941958133617028 26 3623 60 3493 53 3475
5866 0.018939264498150851 0.87641217959389794 1.8399562051864815 0 0 0 0.43021812484213517 26 3630 60 3501
5868 0.78024238240371235 1.3130716899965864 1.3660575854587678 189 173 138 0.73417953012857029 26 3640 60 3510
5870 0.59705524704329604 1.8272335106244739 2.4102676152957798 152 138 109 1.5032784791158402 40 4018 60 3516
5871 0.02146843475015052 1.5383107241770668 1.4964710023946821 81 90 116 1.2607305747838433 64 3174 7 3132 94 3312 87 3263 40 3189 26 3006 60 3028 36 3149 30 3275 51 3125 90 3141 46 3652 9 3415 83 3264 55 3456
5872 0.20464301957974246 2.2726077832925817 1.888234834527305 21 19 16 0.30551312788667917 98 1707 83 1717 91 1561 9 1702 7 1385 46 1519 26 1486 60 1357 87 1608 94 1685 40 1576
5873 -0.62783895025372916 2.6376411380048621 1.4344763350166487 35 28 29 1.060843437649182 7 2898 40 2748 26 2785 60 2676 17 3368 46 3559 9 3206 55 3311 64 3071 53 2644 82 2556 78 2770 54 2890 4 2687 43 2543 59 2531 88 2283 68 2170 21 2502 48 2596 81 2647 2 2475 65 2197
5874 0.51504879070741527 0.93314342282265816 1.3573792271566583 79 68 18 0.69995036611542127 46 3263 55 3603 7 3421 26 3281 60 3151 53 3155 82 3114
5875 -0.010180860348509908 2.3693140873069338 1.8027627196726705 45 52 53 0.30835525650579848 7 2152 26 2170 87 2292 94 2412 40 1546 60 2052
5877 0.59469988908098337 0.83869002592480812 2.1313098243603301 217 126 12 0.292519432249639 26 830 60 813 53 975
5878 0.069400635160805302 2.238863739089906 1.4008505893939085 0 0 0 0.16768845893563913 24 1559 26 774
5879 -0.70037123221590658 1.9632120930198815 1.4654899916855002 147 152 169 0.047384804679464418 26 1967 60 1923
5880 0.78024238240371413 1.3130716899965929 1.3660575854587762 189 173 138 0.7341795301285905 26 3641 60 3511
5881 0.46297464327571458 0.80458006514850078 2.1579722708207099 251 203 61 0.21162647193193643 94 272 53 23 15 1414
5882 0.79834016106011385 1.2901790665564776 2.3694878458398909 0 0 0 1.4937019484614975 7 964 60 122
5883 0.58133781012115837 0.81280585745713851 2.1377670346381521 190 117 23 0.43150402809394256 24 1557 53 39
5885 0.60573035526119379 0.90824940477291038 2.0348691932658567 198 133 30 0.091561453967501483 26 868 53 52
5887 0.72852737903537035 1.1651627478042668 2.1482963451665507 207 130 22 1.9159866949701521 7 218 53 93
5888 0.97276067174859782 1.6688794866805499 2.5920406247966081 255 212 64 2.577803031296614 60 251 53 140
5889 -0.060186788298686511 1.0440988656618024 1.7345339835680742 110 125 158 0.36091686557839503 60 86 53 201 82 176
5890 -0.7551361509444805 1.8472974909071986 2.5117732816762683 95 65 54 0.26857421896482025 26 124 53 299 5 1229 34 470 78 511 54 560 4 533 43 713 88 555 68 236 32 967 11 890 21 999 44 227 92 280
5891 0.47262452334861516 1.9712132554600101 2.3376406881681833 104 98 85 0.10053965601306247 26 1227 53 370
5893 0.84001814173896416 2.1350575565538334 2.0532203148496717 50 30 24 0.39522321102072872 26 703 53 558 43 137
5894 -0.59136452155769637 1.3602275756039817 1.4253861038590636 255 224 70 0.44421067520446506 26 235 60 256 53 575
5895 -0.24534662322318393 1.6697012739805803 1.6890897283502881 145 115 40 0.47965979643398732 26 361 53 579 68 383
5896 0.79959865342280789 2.1824510835230364 1.9825448757943003 93 65 53 0.077924061521983376 60 608 53 596 68 805 44 561
5897 0.80903184529343364 2.1899459338455882 1.9776828196943133 36 26 25 0.15831731329323898 60 609 53 598 68 807
5898 -0.49952464616474224 1.6454937549488822 1.6325271549529947 129 86 23 0.40738812697039195 7 257 32 515
5899 0.74592470819858292 2.2060283370564595 1.944628951884815 35 22 22 0.17405170370572495 26 735 53 643 88 1022
5900 -0.77189211224686272 1.3912334712207295 1.3517159567084618 255 223 67 0.31162454908577747 60 1730 53 656 44 14
5901 -0.38469450440081387 1.7295553272465594 1.6190151370905774 252 207 60 0.32281492903478815 40 296 53 663 93 265 82 516
5902 0.51243500904829709 2.236654688309835 1.9490103968899586 101 71 57 0.214456895216944 60 607 53 696 88 307 68 700
5903 -1.4450735557392271 2.1989053082275287 2.1345579776835333 97 103 99 0.033082377511430734 60 286 53 701 88 849
5904 -1.4463900278721591 2.2019909119451131 2.1373763016760639 97 103 99 0.14459992033480154 60 287 53 702 88 850 82 1481
5905 -0.81722417811057524 1.4335719684795578 1.304499394109438 193 125 44 0.15074146423274698 60 291 53 711
5906 -0.6031426076745402 1.9471999367883432 1.3553238921172825 120 112 42 0.82723199995469709 60 1301 53 866 88 750
5907 -1.1286891691581018 2.4463336605544996 1.7311456191127743 114 117 110 0.60042912057630082 64 1451 53 881 82 809 34 757 34 1469 54 821 43 901
5908 -1.1528486717294102 2.4537189492869911 1.7210123640542565 118 120 111 0.30618645064581135 26 1339 53 882 43 902
5909 -0.22334556918662887 2.4911921140561808 1.6462002858942839 61 67 69 0.44524802072587627 60 742 53 902 82 610 68 395
5910 -1.6786832575003174 5.5883440267529041 3.9130209216946281 81 82 76 0.35562263856130555 60 746 53 920
5911 -0.85617766152788632 2.6297636681502503 1.4845511505175124 122 124 117 0.27408941036061096 7 678 53 943
5912 -0.76966689461716042 2.678659920793991 1.4136333306350306 101 106 101 0.29235488316013042 60 754 53 952 82 1523 34 740 5 1507 21 633
5913 -0.77319942409812714 2.6973130764605044 1.3940892048230284 152 144 125 0.5721780931602034 60 761 53 953 82 828 88 845
5914 -0.72834725404842093 2.7203138737865089 1.3551786617154513 138 94 72 0.15460319481368037 26 777 53 963
5915 0.46575291290553622 0.73150614287349736 2.2258274118264976 0 0 0 0.70449610795492745 24 2295 53 966 15 1419
5918 0.24234375728026866 1.0209498824781604 1.4849560137478242 135 150 182 0.79404974493143909 60 953 53 1157 82 954 5 873 4 52 78 887
5920 -0.25515537254613119 1.9026093837694198 2.1398108504868611 164 138 47 1.9307297463251549 60 1055 53 1288
5922 0.11863918111596602 2.3646084088317645 1.8029936486379983 84 82 74 0.45969674687850692 60 1436 53 1566 82 1307
5923 -0.83963176925657612 1.526026109168948 1.204385227334656 140 121 44 0.36211851804734474 60 1822 53 1576 82 2003 34 1863 54 1951 43 1473
5924 -0.41410532813051326 2.5012968215623528 1.6415889473697272 64 74 77 0.16494264644112158 7 1431 53 1623
5925 -0.87204771107836332 2.7383070458518328 1.3322462770962777 171 157 131 0.52593829210501308 60 1508 53 1677 88 860 68 120
5926 0.58152102225240165 0.74108763125318189 2.243240183966658 190 130 30 0.20397266502980294 26 810 53 1688
5927 0.48474502558023835 0.74383883042623389 2.2369757665919341 255 231 72 1.1245384020428291 26 1608 53 1689 15 2409 70 2259
5928 0.22984025204231681 0.70485475181441759 1.8033747476930111 128 106 25 0.33960223923531174 60 791 53 1714 82 877
5929 0.60724074027401176 0.88621758513318416 2.0313719624739215 255 230 69 0.9558931530478143 40 1960 53 1720
5931 0.29823407030033622 0.9031700162238544 1.5203780334174419 21 22 28 0.21070712977637088 60 1605 53 1798 88 990
5932 0.1494168546325757 1.1341946985120737 1.5116771352158185 164 173 198 0.14131831848005311 60 1685 53 1872
5933 0.055322931838713008 1.5293412252354373 1.7125620885573336 103 70 14 0.075037921743104599 26 1904 53 1943 82 1715 88 1694
5934 0.89960108879931389 2.1281754565166175 2.0449009074815496 102 71 59 0.43128108028437506 60 2003 53 1999 82 1679 34 1637 5 1021 34 978 78 200 43 1674 88 1598 68 2068
5935 -0.42136652037575406 1.6535661590500979 1.6841735633472519 176 142 47 0.73165966019888207 60 1084 53 2017 43 1347 88 1281 32 1327 11 1157 25 1224 45 1134 100 1259 80 341
5936 -1.4527957958221023 2.1322530584165023 2.2327166454205525 207 194 160 0.32760434055113741 64 1970 53 2022 82 2054 34 1984 5 2030 78 2016 54 2128 4 1924 59 1777 21 1716
5937 -0.87659513766176433 1.4812323449471398 1.2634446000364623 255 229 71 0.40426164456863756 26 1829 53 2096 88 1943 43 2071
5938 -0.10664066781501694 2.4533809509111646 1.6731849864873769 56 63 64 0.32197839118913285 60 2661 53 2161 82 1950 34 1824 88 1808
5939 -0.93706451622482356 2.7098407347144899 1.3800807475601342 98 103 98 0.39721960197283823 26 2247 53 2210 43 1566 32 577
5942 0.58841633570954854 0.72943993004029117 2.2691340840543219 255 229 74 0.080806990606794221 60 2146 53 2216
5943 0.45424102763817165 0.81118287977270942 2.1593448179051928 255 207 61 0.20106148019061462 60 2692 53 2223 88 2012 68 2356
5944 0.56468644887882768 0.87949101028400822 2.0558906093302287 255 233 76 1.3065882858091444 40 3155 53 2234 94 3284
5947 0.71891184213031833 0.99523098485269801 1.9003231667790335 255 233 71 0.82594164099577672 60 2203 53 2263
5948 0.24330436289408544 0.82098502023047659 1.6371969755750482 190 200 227 0.19455196089053359 60 2182 53 2268 82 2143
5953 -0.43141041451941031 1.6896282495066206 1.6492849402067844 147 117 40 0.37995892596164582 7 2465 53 2549 32 2419 11 2248 76 2559 25 2529
5954 -0.8226783776180121 1.3675918022664113 1.303948789881032 150 1 0 0.63470829526014316 26 2355 53 2562
5955 -0.82081247618055397 1.4397907478879624 1.3028024017845794 188 129 47 0.65801313244728354 55 1694 53 2576 82 2476 34 2706 5 2755 78 2706 54 2824 4 2595 43 2830 59 2059 25 2496 76 2532 47 2109
5956 0.12613068191416854 2.3399187420842091 1.8212435140789944 61 70 74 0.34942590978288623 60 2612 53 2599 82 2430
5957 -0.84774201993646736 1.5919211320408519 1.1409467568926446 255 222 70 0.25521851508490562 60 2881 53 2615 88 2302
5960 0.49337852477369226 0.86535489343911765 2.1034766364223905 255 222 65 0.3002505997755216 60 2161 53 2674
5961 0.80082413820814347 0.96253384268019093 1.9228069893054711 255 224 69 0.009947401666611554 60 2756 53 2714
5962 0.80104137801938935 0.96164265344373001 1.9222338485197425 255 224 69 0.18240179524886724 7 3019 53 2715
5963 0.16356797359290121 1.3911526202738138 2.0921735200967184 27 19 14 0.66623068466445368 60 2774 53 2782 5 1632 34 1612
5965 -1.4181576701240204 2.2555813393561057 2.0680993939181325 227 211 179 0.46241372129246372 55 3220 64 3304 53 2875 82 2852 34 3044 5 3144 78 3072 54 3208 4 3130 43 2889 59 2995 32 2891 11 2767 76 3004 25 2981 45 2564 86 2120 16 3575
5966 -0.5578352953525515 2.5941057902968505 1.4690807219804995 58 44 43 0.32243426841842593 64 3064 87 2800 53 2912 82 2844 34 2759 7 2899 5 2826 78 2765 54 2874 4 2678 59 2520 21 2491
5967 -0.78328442637558338 1.8126624075288704 2.5356767658862744 109 74 61 0.50999103887078379 26 3108 60 2975 53 2976 82 3016 34 2955 5 3033 78 2974 54 3138 4 2924 59 2736 88 2731 68 2827
5968 0.09571319912043319 1.4414404318211627 1.9680125092986931 147 112 32 0.46655623843901628 64 2757 53 2982 82 2954 34 2881 5 2963 78 2896 54 3031 43 2995 88 2865 68 3063
5969 1.0200300508839808 2.0451952206649566 2.194864956308554 230 216 180 0.85312743476032882 60 3050 53 3017 82 2683 34 2561 5 2602
5971 0.48158408785951345 2.2456457325260235 1.9660042902661312 215 197 159 0.69396197411455018 26 3048 53 3071 88 2693 68 2929
5972 0.50331773280200376 2.2486978480338586 1.9041931652788782 141 94 70 1.7806088330022369 60 3088 53 3072 82 2992 34 2622 5 2670 64 2969 78 2610 54 2732 43 2971 88 2694 68 2928 21 1924 81 1249 70 2350 42 1090 99 1946 75 1815
5973 0.54606635295778339 2.2666583018093642 1.8219514576664859 98 69 58 0.73539665055645542 60 3288 53 3077 82 2993 34 2909 78 2611 4 2504 43 2972 59 2385 88 2695 68 2927 68 3090 21 1927
5974 0.83053380132543009 2.1325174650763863 2.0583144108826721 55 35 31 1.4365705640672062 60 3418 53 3313 82 3156 34 3088 31 2874 57 3137 66 3634 72 3231 71 3246 84 1967
5975 -0.74491882326411374 1.3333072044911003 1.4626407666208525 255 234 73 0.092792687823888984 60 3147 53 3316 68 3159
5977 -0.8953885332900654 2.7683537010364949 1.2610673214527939 132 92 71 0.53804872801900816 26 3568 53 3369 44 2576
5978 0.61115368837375994 0.87344536452600829 2.0880089319273591 0 0 0 0.23058149593603691 60 3375 53 3372 32 3412
5979 0.61115368837375994 0.87344536452600829 2.0880089319273591 0 0 0 0.23058149593603691 60 3374 53 3373 32 3413
5980 -0.17315994295960538 1.6265365207163107 1.7201566462935296 159 131 45 1.4765588228733031 60 3349 53 3402 68 3248 88 2969 11 3323
5982 0.62918401511090183 0.81742731806680313 2.1550960998460367 175 118 37 0.45010615032636786 60 3440 53 3434 43 3447 26 3572 32 3467
5984 -0.20052798788687706 2.5067682041576873 1.6048089176046734 56 61 63 0.45343772268258931 46 783 55 765 7 719 53 1626 26 1584 60 1492 82 1401 34 1274 21 474
5985 -0.37836089551896168 1.7377149325672012 1.6129181357465143 162 100 11 0.67557123783094775 9 356 87 1156 94 1180 40 1112 24 1152 53 1473 7 1054 26 1183 60 1171 15 231 93 1155 82 1302 68 1142
5986 -0.32204728375331015 1.7493973334330386 1.6039238113877512 103 75 15 1.8402406451966908 60 3408 51 3694 98 3879 83 3803 91 3672 9 4171 64 3579 90 3594 7 3731
5987 -0.47612636218118243 2.624706019571283 1.5490376659323115 44 33 32 1.3205949010079756 26 3633 60 3504 87 4093 40 4003 82 3452 53 3490
5988 0.2377713306205777 0.63753884599046928 1.7952045511592083 255 243 69 0.05603662037549012 60 15 53 979
5989 0.92617610917689053 1.1220633989584414 1.7151732000590378 0 0 0 0.090754231758881643 26 2423 60 2289
5990 0.93134136934893341 1.1054680118008773 1.7238025073476575 0 0 0 0.13777296840025061 26 2985 60 2829
5991 -0.81478811293109055 2.2349775179297451 1.4853020801414278 7 7 3 0.66846662248362787 51 1317 46 497 26 2035 97 1976 95 2076 17 2123 41 2040 36 1992 30 2119 51 2129 90 2160 98 1499 83 1449 91 472 9 500 46 2057 55 2044 7 1224 60 1376 53 1633
5994 -0.36387881502766473 1.7794493396745747 1.5545232389625208 130 90 16 0.50945688081105522 24 2147 15 229 93 2657
5995 -0.37631380865508413 1.7373882424939813 1.6141152646002415 139 89 12 0.67102853763090797 53 1474 15 232 82 1303 68 1143
5996 -0.2155770045303346 1.2922608941283487 1.8651831572330255 194 146 39 0.48395787478196617 24 218 15 240 44 1021
5997 -0.073873936146143626 1.0037492685829734 1.7757095012453314 159 169 194 0.17419680382815725 94 115 15 245 40 103
5998 -0.30049871905108982 1.6356879316675539 1.7279545756997117 204 168 47 0.59560820742184439 40 304 15 265 94 336
5999 0.34617528271500975 0.96119556019530805 1.4316477823031537 172 184 215 0.19665408163268433 24 431 15 398 93 276 44 405 92 411
6000 0.19304195632340596 0.80924406189705134 2.0175806254081401 193 120 20 0.710425015916758 24 1230 15 406 93 1169
6001 0.36056077397152109 0.9735776433643949 1.4519489398267686 167 173 188 0.24551965695163316 24 433 15 424 93 277
6002 0.27013254267927483 0.86537651510340963 2.0988728737583973 147 75 10 0.070899703664060884 40 1019 94 1078 15 482
6003 0.27013254267927483 0.86537651510340963 2.0988728737583973 147 75 10 0.070899703664060884 40 1018 94 1079 15 483
6004 0.11268561677435113 2.3980111541704643 1.7227885220432455 77 58 51 0.23954091424294735 87 824 15 559 93 670
6005 0.20006399211590448 2.0759976905014912 1.916533759223926 25 23 23 1.9588920390709397 24 720 15 604 18 625
6006 0.25304365284309449 2.138358757930507 1.873590813031113 37 38 35 1.9429199329160201 24 740 15 626 70 560
6007 0.25304365284309449 2.138358757930507 1.873590813031113 37 38 35 1.9429199329160201 24 741 15 627 70 559
6008 0.3421091675803416 1.4907607905738245 2.9763188178447213 57 39 35 0.26273546216389088 24 732 15 717
6009 0.40526300087563583 1.593776701042892 2.8829729033279015 222 207 170 0.06626844187471978 24 757 15 735
6011 1.2007222702454257 2.0043160570010139 2.2506070669058844 114 115 107 0.25646479946009493 24 970 15 948
6014 -0.88579448605617606 1.425022683181248 1.3029188772709064 255 233 75 0.16797677408331965 24 2030 15 962
6015 -0.76638685226239067 1.4134146375348922 1.3352782003323591 179 2 0 0.30908550707721821 24 24 15 970 84 2
6016 -0.67171375813963152 1.2519054153595108 1.5308372075352643 251 206 62 0.027674411050199757 24 28 15 974
6017 -0.79014630138738884 1.8322470898570093 1.2930747372214542 104 97 108 0.32400991014869002 24 74 15 986 93 40
6018 -0.88969990768595408 2.2098234337928351 1.3565864663536831 90 102 130 0.30924388606055347 24 1069 15 1005 44 846
6019 -0.46818193517135631 1.8554131326001893 1.4543475413655842 69 67 75 0.6504695168749357 24 240 15 1069 93 192
6020 -0.52349688732365096 1.5801596165602199 1.8702482325107272 255 224 56 0.4681072524497496 24 175 15 1073 93 1104
6021 -0.63584108718719057 2.4006478901279649 1.4155808451090284 4 5 7 1.890904754891503 24 1200 15 1085 70 1112
6022 -0.67902080124810249 2.4476445059136762 1.469307747604913 9 10 12 1.39963704539256 26 2195 60 2115 15 1086
6023 -0.70107785274072043 2.5388959882442452 1.4950389927161261 3 4 6 0.17773820174856159 24 1201 15 1101 70 1142
6024 -0.61323865221407281 2.5550208739299873 1.5619859736617112 7 12 20 0.21175510079333371 24 1282 15 1113 93 1306 18 1348 70 290 23 426
6025 -0.26455157366786053 1.8699412113548439 1.5439697402514942 20 23 29 0.31621481961974168 24 1246 15 1142 93 1224 70 1136
6026 0.31572838336952624 0.92267963707655221 1.5016954558788915 246 252 255 0.22315667506212314 24 1263 15 1233 93 2147
6027 -1.3725845398749519 3.3827637967118354 4.1865850046918176 208 133 30 1.5527829759980056 24 1375 15 1266
6028 0.38150041095592402 0.7166197363812814 1.8266447703514757 255 238 68 0.13468892607097296 24 1267 93 2178
6030 -1.1818873194167883 3.572076409645855 4.2207138827311956 255 212 54 1.4909791825423553 24 2338 15 1318
6031 0.3244921926618326 0.84626734754936284 2.1085354403768539 248 189 47 0.089857320902401908 24 1339 15 1328 93 1293
6032 0.040056368657571471 2.4149386156385426 1.7086644945343246 54 45 45 1.1026894701363481 64 712 87 2358 15 1335
6034 0.085001803925423364 2.324327818649512 1.8482730999984409 3 5 9 0.095044354432039999 24 1645 15 1385 93 1616
6035 0.45831967641231308 0.7443364690949853 2.2397327226705861 0 0 0 0.3825227776272983 24 2294 15 1418 93 2739 18 2648
6037 0.51664083535863392 2.217983405529238 1.9352591846546947 102 71 58 0.13987002866069659 24 828 15 1556
6039 0.40476680202988946 1.5865477396137115 2.8912631076302882 100 100 93 0.14569545108967727 24 1716 15 1573 70 1492
6040 0.40555029298810996 1.5843376935541891 2.8893602805196537 100 100 93 0.055410792880142098 24 1717 15 1574
6041 0.45757898277367937 1.5504444095806025 2.886998146823899 232 219 181 0.37229714513587114 24 2464 15 1577 70 790
6042 0.45869752672080299 1.5464188218903421 2.8840217928939667 232 219 181 0.016919584512556377 24 2465 15 1578
6043 0.46465954382053831 1.4932075310696935 3.0128352198814574 203 187 151 0.38738775561150673 24 1739 15 1598 44 1323 11 759 92 1349
6044 0.57954906634904024 1.5327983156043441 2.9541080517547478 236 215 171 0.31678223816700973 24 1767 15 1619 70 2071 42 932
6045 0.58999289341149208 1.5256207443527061 2.969335350248381 126 115 95 0.076905633830916545 24 1807 15 1644 93 2502
6046 0.71797356586277206 1.8537675146726755 2.485754430619866 100 89 69 0.013992336226378911 24 2521 15 1657 93 2522
6047 0.69146856555111902 1.4015065757450489 3.1126101375150612 81 52 36 1.269815943495427 24 1813 15 1675 86 975 28 1675 70 2559 18 3333 49 2624 13 1956 3 2563 23 2938 42 938 99 2308 75 2164 89 2771
6048 1.0353306988599698 2.1018615399011074 2.1101252365272307 211 190 152 0.48178143820635083 24 951 53 512 15 1728 68 1598 44 1294 70 914
6050 -0.74650557729932221 1.2794857534301767 1.5531311233024121 0 0 0 0.25783024283599332 24 2556 15 1746
6052 -0.70295256792414618 1.740768998030664 1.6429559333664066 255 214 52 0.12131967288816721 24 2077 15 1770 93 1032
6053 -0.73325456347372697 1.6977296626396068 1.7009618819037551 111 66 10 0.13604116086188248 24 1062 15 1772 93 1035
6054 -0.66112633553066502 1.944708749407339 1.3437578400661829 101 77 16 0.12355004717762554 24 2084 15 1775 93 1055
6055 -0.5522423882155334 1.7426634707415833 1.6485562195057828 255 225 55 0.11737534159802673 24 1093 15 1790 44 1460 92 1454
6057 -0.072999154177786546 0.98020415036459163 1.7853125078404621 255 227 61 0.88216900887507466 24 1112 15 1839 68 1805 88 1084 92 1836 44 1919
6058 0.16693303038177343 1.2091322251159846 1.4181621926890648 245 200 53 0.26546101564285962 24 2210 15 1883 93 2662
6059 0.23234075113062791 0.55549341477120184 1.9101477521993153 180 105 11 0.28852989927859474 24 2118 15 1895 68 1934
6060 0.23209599650960999 0.55567295707741915 1.9104436816527859 180 105 11 0.25399528730330551 24 2119 15 1896 68 1933 44 1978
6062 0.10323995609193114 1.8932430581502131 1.831839467986502 13 10 8 0.25485388770633033 87 2138 15 2011
6064 0.099386139581540717 1.6011759142429107 2.9466523485957579 106 74 60 1.3356685871632252 24 2373 15 2075
6065 0.065132596566503206 1.5516151489718453 3.0188555293357702 255 231 63 0.95181557518341697 24 2375 15 2076
6068 0.45657014740933755 1.5977425730297081 2.8919319946239543 224 208 171 0.27214744013542902 24 2463 15 2140
6069 0.48369779958915415 1.5181967374997263 2.9823440687827065 234 218 180 0.64887977900275906 24 2466 15 2149 93 774 70 1506 99 679 75 1177 89 913
6071 -0.87758328740740277 2.3212429765424409 1.3781791673772723 0 0 0 0.31590035374336217 24 3215 15 2219
6072 -0.70108433880991838 2.5799608460883636 1.4969180513025346 90 101 102 0.53853482403174824 24 2984 15 2244 93 3052 70 2467
6073 0.3058397722293642 0.84921442771591582 2.1026493129263955 149 81 13 0.45546012968739924 24 2653 15 2341 93 2708
6074 0.37027351972350997 0.81980065271456659 2.1236490592137298 149 84 16 0.73034083931368454 24 2672 15 2377 93 2721 68 2320 88 2029 44 1704 44 2035 92 1698
6075 0.41331931822657964 0.82712570703392663 2.1272992310569303 175 106 18 0.11483097924788137 24 2695 15 2379 93 2738
6079 0.56408870223110352 1.5206476355704972 2.9477829611766078 236 220 182 0.21257372240243205 24 2478 15 2503 93 2908 92 2039
6080 -1.4725655816352896 1.9235731172736428 1.4871695692195539 255 233 74 0.62557839163429318 24 2911 15 2523
6081 -0.90457400144560107 1.8740834526935166 1.2665482786644149 0 0 0 0.3205045758499851 24 2914 15 2532 93 2587 70 2107
6082 -0.99203242490905341 2.2584530547819361 1.3421301773897545 82 97 133 0.77361425524021188 24 3207 15 2535 93 2980 18 3108
6083 -0.5300206891321495 1.4635037170764891 1.305654526930041 255 234 63 0.49272781516025749 24 2921 15 2537 18 3080 70 2391 49 2307 23 2272
6085 -0.51542663976849667 1.5986432603027303 1.8727871046702118 255 212 51 0.36879814961435048 24 2938 15 2556 93 2995
6086 -0.33240166428228302 1.6266828346566882 1.4557485220137663 255 220 58 1.6891950798426023 24 2947 15 2562 23 2711
6087 -0.36615682378751624 1.8738398567713523 1.4820267318041529 161 173 199 0.22933055104215969 24 2970 15 2565 93 2655
6089 -0.4312558944444761 2.5280420992180375 1.50404375694201 65 51 48 0.58557023268517894 53 2907 15 2586 82 3065 64 3331 34 2993 5 3104 78 3006 54 3143 43 3094 59 2764 88 2753 68 2849 21 2465 44 2435 92 2340 70 2235
6090 -0.34853483735349799 2.5435600192696959 1.481769635388994 75 56 50 0.37238996772488747 24 3048 15 2591 93 3093 70 2249 75 1359 89 1194
6091 0.25900800865472451 2.2412371394896411 1.9463495148960752 226 201 156 0.054542368200006019 24 3161 15 2702
6092 0.45990426216329139 1.58548931890648 2.8660291891791343 235 217 173 0.32314914596356148 24 2839 15 2733
6093 0.49731909183247769 1.5787717937425856 2.8826162191577303 229 214 178 0.43073032428544744 24 3167 15 2737 93 3181 84 1744
6094 -0.95211422930495038 1.5973188350114029 1.1289757349894598 0 0 0 0.64901061089238588 24 3192 15 2762 93 3196 18 3065 70 2382
6095 -0.68632685996175036 1.3176582026882748 1.4927450744952071 255 248 66 0.33646024142930425 24 3196 15 2765 93 3208
6096 -1.5367937406243759 2.1031598940918279 2.2596079967681595 149 101 76 0.53929396452638223 53 3225 15 2767 68 2989 44 2590 92 2517 84 1773
6097 -0.2978151120642194 1.9767031096499834 1.5538481139260167 97 92 26 0.51169966689146318 24 3240 15 2805 93 3458
6098 0.24490585155859165 0.86296941173589015 2.0349753789870384 255 218 59 0.56131531600372708 24 3247 15 2828 93 3251 18 3101 70 2602 49 2318 23 2981 99 2327 75 2196
6099 -0.97452959193498334 1.3569989250943528 1.434987949863858 255 239 75 0.783671738072516 24 3395 15 2914 93 3195 70 2562 23 2218
6100 -0.80175244260338585 1.348337571511947 1.4376782851744805 255 248 67 0.22827017890868603 24 3397 15 2917 93 3201 70 2568
6101 -0.71384976215543972 1.3681525882041814 1.4151694439832812 255 249 65 0.079983368418148945 24 3403 15 2924 93 3205
6102 -0.71163494578844144 1.3657099763780156 1.4124915058468865 255 249 65 0.31904497776620794 24 3404 15 2925 93 3206 44 2587 92 2512 70 2567
6103 -0.62155180933368159 1.384304108084079 1.3898587567166694 255 249 65 0.11895393608092893 24 3406 15 2930 93 3211
6104 -0.62155180933368159 1.384304108084079 1.3898587567166694 255 249 65 0.11895393608092893 24 3407 15 2931 93 3212
6105 -1.0773401767031905 1.9396049345873914 2.4343101350050276 157 102 72 0.57508785062332857 53 3177 15 2945 82 3200 34 3172 5 3262 78 3195 54 3362 4 3109 43 3389 59 2950 88 2988 68 3002 32 3407 44 2804 92 2730 65 2628 84 1781
6106 0.33041073043446179 0.86464041765478117 2.0935734250427998 255 208 51 0.45857032490045868 87 3494 15 2978 44 2657 92 2587
6107 0.44837403989692748 2.1771530153249619 1.8406387672080886 120 79 60 0.25760981232654134 24 3512 70 2696
6109 0.46151706957858496 1.4292841422871916 3.0647712652478449 154 103 77 0.38204449761399428 24 3480 15 3035 44 2712
6110 0.54042727395963974 1.6018498632449805 2.8390778855763679 237 220 182 0.1603383784491802 24 3509 15 3048
6112 0.52684263100885287 1.4047254578922601 3.0874659031282272 156 104 78 0.46457476155419264 24 3493 15 3050 44 2762 43 3192
6113 0.59619700085138139 1.5935183472912009 2.8776162197910047 235 219 181 0.1217366315359711 24 3531 15 3068 93 3585
6114 0.59660014791464544 1.4949138710911301 2.9970877690274684 236 220 181 0.3608012255481427 24 3532 15 3072 44 2741
6115 0.65966444871234897 1.5700987864671097 2.8988091289539795 235 219 182 0.23548854021939095 24 3554 15 3092 93 3606
6117 -0.89858682477479368 1.6043124840518965 1.1333017461207679 255 228 72 0.22788168791853949 24 3675 15 3172 93 3703 44 2787 92 2716 70 2794
6118 -0.89858682477479368 1.6043124840518965 1.1333017461207679 255 228 72 0.22788168791853949 24 3674 15 3173 93 3702 44 2788 92 2717 70 2793
6119 -0.55897348914697831 1.3707432610276022 1.430975656897945 255 235 72 0.63455736880905722 24 3681 15 3177 18 3703
6120 -0.44907824827526455 1.7125432105395262 1.6262575743566956 11 13 16 0.15784263569703338 24 3689 15 3190 93 3440
6121 -0.44148579737793703 1.5473519560375297 1.8748973434077623 104 54 4 0.95659909857250813 24 3690 15 3191 44 2876 92 2803
6122 0.25722493671348268 0.91894164732373262 1.9288688554567694 255 242 71 0.58324405038618399 24 3714 15 3216 93 3729
6123 0.32433087041302089 0.66899488931343676 2.1109855255059995 255 254 76 1.2114581022358 24 3439 15 3224 93 3730 70 3104
6127 0.76000054883748358 1.4981936200408839 3.0090285895298803 245 223 179 0.9695401208237121 24 3750 15 3251 44 2850 92 2779 84 1971 42 1761
6128 -0.40675623971945085 1.6986647831421864 1.5301161975544109 255 227 60 0.33581070686006936 24 3785 15 3283 93 3794
6130 0.22893918693503623 0.59386918516348475 1.8326954867078331 255 251 79 0.7613977372175571 24 3787 15 3300 93 3717 70 3044
6131 -0.51792798853825905 1.8423798610696211 1.4995144817480641 32 27 22 2.2705150775341605 24 3870 15 3341 93 3831 70 3143
6132 0.51408214680455167 1.5217796400768162 3.0099663632299194 231 217 181 1.2776817446458513 24 3860 15 3347 93 3847 70 3171
6133 -0.631348105922105 2.196399261331258 1.395962128862781 21 29 40 0.91210026814470946 87 4092 15 3349 40 3999 94 4112
6135 -0.92255158092316092 1.5691314539847896 1.2182522198214198 255 228 59 2.1776654555956156 24 3895 15 3363 93 3868 44 2953 92 2882 45 3717 70 3185
6136 -0.90583794927434136 1.5570832098368206 1.2168480268411601 255 228 59 1.9056564523746222 24 3896 15 3364 93 3869 70 3184
6137 0.80575946605721549 1.0915327260675722 2.5499075094035111 125 122 108 1.5168243669818038 94 629 15 3370
6138 1.0066764132879598 2.0083328650604266 2.3102341695006468 224 210 174 1.1253220895561806 24 3908 15 3375 93 3882
6140 0.75516769522612825 2.2125224908980958 1.9305478143797261 31 20 18 1.0887147227804195 46 2395 55 2146 7 2222 87 2432 24 2535 15 2158 26 2223 60 2064
6141 0.5576056725730455 2.2274452744719153 1.9255097306883204 100 69 54 0.46304516949634078 7 2886 60 2619 53 2871 15 2488 40 2385 24 2873 82 2744 34 2227 5 2324 78 2244 54 2318 43 2729 59 2023 88 2520 68 2618 21 1905
6142 -0.81417703899741001 1.5108526568416376 1.4069018848692691 255 230 66 2.0092502508529577 7 3827 24 3910 60 3515 15 3376
6143 -0.78908169701779152 1.3173978047033648 1.2952535033000294 254 229 73 0.87876139375804574 40 860 94 918 93 5
6144 -0.67141766055421925 2.1375538798479847 1.4289762507347916 101 89 25 0.53373116816923805 24 1120 87 1233 93 187
6145 0.32684898121340011 0.69386332675802798 2.0089221470733856 153 83 11 1.5383189602638554 26 8 93 297
6146 -0.69347890060049089 2.3963290810322126 1.3830383415851413 100 107 106 0.55049820280512263 60 1483 93 303
6148 0.28376306033877619 0.78120032078932788 2.098803233807224 188 113 17 0.82211039879037962 40 153 93 339 70 252
6149 0.20092674929516244 1.3091092125128365 1.498440207109009 68 67 74 0.49806025408797067 94 439 93 359 40 1201 18 1133
6151 -0.21265733804283474 2.4252590655516779 1.7103103814401364 67 76 76 0.30297104199716207 15 414 93 574
6152 0.069468754256400714 2.1293626136130857 2.0429797955950075 191 151 42 0.29866336473304589 24 699 93 654
6153 0.71696824395578884 1.1208262512922857 2.3521426483240764 102 70 57 2.3191800032470757 40 598 93 726
6154 0.56996316228243993 2.2417282626776092 1.9054786635697822 99 68 54 0.27269304413996087 24 1857 94 880 93 831
6155 0.61574280765143174 2.3713285875086729 1.9965515164321161 100 70 58 2.2170029945665277 40 829 93 851
6156 0.73302184532280612 2.1700166918314308 1.9601466860655197 105 72 59 0.33965802936408634 87 1700 93 852 18 831
6157 0.83383047296844925 2.1290302060860036 1.9880052884961545 103 71 58 0.66665303454325298 40 838 93 865 23 1536
6160 -0.75590048754537831 1.4498146192663899 1.3025327198227319 155 117 46 0.10628816536221924 24 1020 93 964 70 33
6161 0.22861328514362125 0.5567659697294739 1.9108759731532623 153 81 7 0.37351507451103572 94 24 93 1051 70 1063 23 851 18 912
6162 0.22129677900663178 0.81159668282332698 1.6249843320626471 71 87 118 0.12731509195893465 24 1188 93 1074 70 1059
6163 -0.48822482702867631 1.614132882714185 1.7699600976884835 130 93 21 0.019191299519298592 24 1102 93 1101
6164 0.20610761048645262 1.3291892162597723 1.5148983340429187 72 57 15 0.88952489353964115 24 468 93 1232 18 1903
6165 -0.75363057106291287 2.6941790569464232 1.3797860546945859 157 149 127 0.57074564765846569 24 1199 93 1249 70 216
6167 0.30540366600159641 0.93392197157087209 1.9886303679492288 255 212 52 1.2222953104504344 94 1109 93 1281
6168 -0.62659746139224992 2.5444254955127388 1.5638105619961933 53 58 57 0.024453094102682076 15 1115 93 1305 70 288
6169 -0.45361426445241271 2.6690493010534975 1.436059411049484 87 87 85 0.38612819722092973 87 2848 93 1383
6172 -0.23316005493422995 2.5919938805856506 1.5213384849933849 92 92 87 0.39293904651085731 7 2918 93 1476
6174 0.77707283561619034 1.0698553116925831 1.5445864099742317 204 101 8 1.1904988583934204 40 1463 94 1550 93 1542
6175 -0.1299870950385692 2.6905603136041658 1.7028762253586638 92 93 86 1.6520702369419773 60 751 93 1589
6176 0.12510191759912886 2.3228248533594211 1.8559234721935092 69 79 79 0.081023651206840339 15 1423 93 1618
6177 -0.65181924069216823 1.363404142919673 1.6175457150538941 255 239 63 0.22666080825941445 24 1041 93 2052 18 945
6178 -0.60416254680464843 1.4103017246666469 1.613661410921327 130 85 10 0.97136861940506958 24 1049 93 2066 18 1723
6179 -0.58531929269740512 2.273560903042231 1.3549486724182298 2 3 3 0.36997190810301317 24 2144 93 2184
6181 -0.69581846560620408 2.5335980269616041 1.5410870738030891 3 3 6 0.084715487911524806 24 2164 93 2228
6184 0.69261156991615869 1.0523986251483124 1.4393421340600399 255 228 64 0.34609127428497394 24 2414 93 2287 70 1165
6186 1.1049213847623545 2.1588555399824449 2.0800767476974324 86 89 83 0.21523654574632234 40 3041 93 2560
6188 -0.91130989882395563 1.8809167181344799 1.2709130664935497 0 0 0 0.077082755878160353 24 2915 93 2588
6189 -0.87716828060089147 1.8872506763992551 1.2589451874069526 84 101 138 0.0056328448672593083 15 2197 93 2593
6190 -0.03463904262410622 1.8630900747186896 1.6128479793514199 8 4 2 1.4373813810758715 40 3257 94 3377 93 2751
6191 0.64848298226664436 0.87838667460163999 2.072504420556859 255 227 71 0.31228079644174456 94 2811 93 2815
6192 0.025786189845926628 2.4363736072381825 1.6703605562287733 40 32 37 0.371857114174312 24 2785 93 2842 23 2538 70 2514
6193 0.43243832841536778 1.5252441343623813 2.9312299421160968 226 212 176 0.61131750184765166 15 2485 93 2898 70 2053 42 727 99 1272 75 1164
6194 0.44382912072101821 1.4640116787183244 3.0150799204046694 148 100 75 0.25374432049839485 24 2832 93 2900 70 2357 23 2575 99 1992 75 1870 89 2069
6195 0.54870506637212291 1.4907251725693615 3.0196819558114858 129 121 106 0.10809918446781205 15 2504 93 2910
6196 -0.46699504956061699 1.5695152944273234 1.3736454855337898 255 231 65 0.56059797184404736 24 2930 93 2979 18 3085 70 2395 42 1151
6197 -0.88610903455020784 1.6423535171728136 1.1075021246166923 0 0 0 1.4906336038043022 24 3677 93 3198 70 2563
6198 -0.68051193667396292 1.4022774815242085 1.3613048095216449 255 249 66 0.3444364693709529 15 2922 93 3203 44 2584 92 2509
6199 -0.74472174559611071 1.3319673198016782 1.4637435224424138 255 248 64 0.12699346777721554 15 2926 93 3207 70 2570
6200 -0.93015210858205022 2.1344852230053752 1.3265343948170536 75 91 127 1.7452182025072098 24 3206 93 3223 70 2400
6201 0.31501441864554558 0.62346529902340175 2.085349144745936 0 0 0 0.74803189170785322 24 3236 53 2215 93 3248 70 2600
6202 -0.36021669130633804 2.5171159346514429 1.5680467695242088 28 23 26 0.4612285788695954 24 3265 93 3261 18 3187 70 2481 23 2777
6206 0.0021736255488508521 1.8029797708404327 1.6556227440790614 81 97 131 0.41565775121032505 94 3968 93 3472 40 3602
6207 0.29214910642997421 0.62555943634037936 2.051848684830341 255 255 83 0.10547878161182249 24 3701 93 3726 23 3219
6208 0.79617092452108462 2.2247076639867802 1.9471389256433542 101 71 59 0.64638999960395482 40 3934 93 3812
6209 0.84619743574507411 2.0979415953290417 2.1169069448244202 238 215 167 0.88063199923208313 15 3315 93 3813 84 1932
6210 0.47928277541786346 0.74868293541701447 2.1889682326142386 255 235 60 0.59066443387038925 24 3871 93 3838 70 3163 23 3445
6211 0.39750824037940757 2.1981390826659393 2.0583616927066122 208 193 156 1.3603872510421355 24 3906 93 3875 23 3497
6212 -0.7239050979467645 1.4195939690825263 1.3564485234113262 255 230 67 0.30874801535390123 15 3377 93 3877 70 3201
6213 -0.97362322432626136 1.5722156749986742 1.1376021530496585 255 230 74 0.18474133326698008 94 2632 15 1739 93 2018 87 1749 40 1724 44 1377 70 959
6214 -1.0908966697186901 1.4140121180252223 1.4101642598288668 255 231 73 0.71036541379767804 87 3093 94 3162 40 3046 15 2911 93 2573 40 3045 94 3163 24 2909 15 2760 70 2383
6215 -0.68504113292932056 1.3676797698300607 1.6416643732149374 255 226 61 1.8800367853803372 24 3883 15 3353 93 3857 87 4074 94 4088 40 3978
6216 -0.28294966537091004 2.4968065906362074 1.5877761804308774 24 18 17 2.2145856586180108 97 3312 95 3573 17 3719 36 2746 30 3192 51 3547 90 3322 91 3197 9 3902 7 3600 87 3745 93 3267 24 3450 40 3499 18 3188 70 2495 23 2778
6217 -0.67827114579937442 2.6055314666732996 1.5024250481798653 57 58 53 1.7767968845189945 24 2194 15 1824 93 2224 95 884 17 1636 41 828 51 1527 98 1719 83 1730 91 2274 9 2402 46 2400 55 2269 7 2873 94 2201 87 2755 40 2058 24 2193 26 2778 60 2672 53 2195 15 1826 93 2227 82 1495 34 697 78 714 18 2135 70 1809 23 1811
6218 -0.73558951528109828 2.5110414281313345 1.5217954984530482 0 0 0 0.043851003208285694 26 714 55 729
6222 0.13150958008672337 1.9282309886693758 1.8114647691365195 99 71 14 0.046304663954767677 15 1346 93 1534
6223 0.12974070544318619 0.74264142460829452 1.7597266507886131 23 28 41 0.15982153690163681 53 64 82 56 34 24 78 25 54 58 43 120 68 597 32 196 11 291
6224 0.18246317613821733 0.78329280942332391 1.7001143247349073 16 19 24 0.53820321405699523 53 88 82 57 5 23 78 27 54 61
6225 0.089870656923303593 1.5950513539301634 2.8439983771293651 89 61 52 0.57693840114871098 53 1026 82 173 54 294 43 358 88 1621 68 1379 92 1253
6226 1.0380410660734207 2.0900269482759071 2.1320429096736815 218 201 165 0.41019606731561531 53 466 82 192 43 75 68 1600 44 1311
6227 -0.082880391429022704 1.3636463672829708 1.9540795400228423 115 86 21 0.43075798474869914 53 281 82 250 43 326
6228 -0.014351730383207334 1.5207723720754505 1.9105685535297516 126 91 28 1.0677871050803365 53 1905 82 297 43 331 88 1120 68 1303 44 1084 92 1074
6229 0.59568999419566204 2.211432451315523 1.9136474243828367 100 69 57 0.25887848915975853 40 823 82 339 34 314 21 275
6231 0.2552199690377539 2.0610245270423357 1.8607759986609653 2 2 3 2.2789051639690889 40 748 82 394
6232 -0.18412906689309708 1.6448086844949403 1.7003340769296864 131 104 39 0.315950731854235 53 1375 82 424 43 426
6234 0.21305498336210724 2.3438112846409016 1.8457874048725378 162 147 120 1.137222946539463 53 768 82 477 34 412 5 454
6235 -0.33566904859410318 1.6780339074422028 1.7135558241455227 149 113 26 1.2721898110203327 26 319 44 197 86 158
