# 3D point list with one line of data per point:
#   POINT3D_ID, X, Y, Z, R, G, B, ERROR, TRACK[] as (IMAGE_ID, POINT2D_IDX)
# Number of points: 363, mean track length: 4.4511732983530097
1491 0.11753961902306925 2.1688285030930508 1.8104079059756035 56 63 84 0.22380636451853531 17 2036 97 1890 36 1960 30 2077 51 2145 98 2310
11764 0.11147161025115926 1.5324833771822335 2.0487597789302425 216 145 31 0.13256219650270773 80 2205 66 2126 72 1929 14 1337 61 1767 12 1998 6 1152 52 1460
1492 -1.6448493939017088 2.1984726766002933 2.1789171160996834 154 107 84 0.37686155338762561 95 1959 97 1894 30 1301 29 2485 33 2497 48 2274 81 2308 2 2428 62 1881 37 1954
11765 -0.071999321730972163 1.7915788043131802 2.1837847507142691 241 179 43 0.2652296778312378 80 2275 66 2185 72 1976
1493 0.86457346098133847 2.2304567470834091 2.1615864323012977 122 105 81 0.28381891471499299 95 2024 97 1917 36 691 30 1459
1494 -1.4849769606188277 2.234622393441335 2.1783458584544704 217 199 160 0.17779337906071385 95 1986 97 1919 36 1234 30 1347 51 2019
11767 -1.2532213852547842 2.1711396671474237 2.0561305838191282 134 132 121 0.20898149680292261 31 1709 66 2199 72 1964 22 1459 14 1351
1495 0.05036064050100339 2.3010688946770039 1.8424834612398229 60 70 95 0.19138135569638817 17 1420 95 1428 97 1938 41 1324
1497 -1.4441156045388783 2.3348195350926555 2.0252373482394823 198 190 161 0.1942286239477107 95 2067 97 1965 41 2640 36 1273 30 1394
11770 -1.2223438181129871 2.1974571303235693 2.0963026884079534 124 117 97 0.20043294159996852 28 1831 66 2233 39 2120
1498 -1.3167357012403715 2.2987695968594779 2.076697879510256 182 174 147 0.16110820121364225 95 2034 97 1969 36 1276
1499 -1.2667447203677049 2.3087016973941448 2.0498855694385516 66 60 46 0.10840751346451058 95 2801 97 1970 41 2623 17 2760
11772 -0.44159638497647613 1.8735210275123115 2.3845682461856001 92 82 89 0.69545732174530028 80 1785 66 2287 12 2564
1500 -0.89506763336916317 2.3345379028947169 1.4319449506302488 72 68 18 0.25807492863480996 95 1467 97 1974 41 1413 64 770
11773 -0.36013458525377473 1.8685372578780759 2.4257691998645798 155 147 158 0.29206165997387667 80 1827 66 2309
1501 -0.79237971565441678 2.3292402346776755 1.3568547291117541 10 10 6 0.32345043180410593 95 2111 97 1978 41 2043 36 1994 30 2120 51 2181 29 2018
11774 -0.04888806299078035 1.706149605688652 2.9068709442726357 62 38 29 0.27533602023603276 57 1732 66 2392 71 2685 10 2202
1502 0.0044167937639676691 2.3266993770933815 1.832465049241119 36 42 57 0.40029945327444533 95 2086 97 1984 36 2599 30 2770 90 2858
11775 -0.47684997939381446 1.7019462317945553 1.3649348623195749 0 0 0 0.3911173033256774 80 3052 66 2511
1503 0.16132140336983533 2.3424201729629908 1.8957834844374826 4 5 9 0.1741980881281126 95 2093 97 1987 51 2298 33 2441
11776 0.8155484955395057 1.269334277278112 1.6676250771519581 0 0 0 0.70578061631047151 100 1889 66 2516 72 2244 12 2696 71 1823 10 2246
1504 -0.65094955664236487 2.3988087756993326 1.4494072125656543 58 67 92 0.056182696639565793 95 2146 97 2018
11777 -1.0040717420381446 1.740274468549281 1.8269146379228292 189 111 17 0.92416412373379764 80 2172 66 2637 72 1886 61 1752 12 2774 71 3005 10 2787 96 1989
1505 0.070002985656651973 2.4065054528708085 1.87833953975422 1 2 3 0.39757468635560633 95 2126 97 2025 51 2296 55 2870 64 2579
1506 0.097933921186352357 2.3926342726034364 1.8900307954816182 3 4 7 0.18025785496712937 95 2125 97 2028 41 2025 36 2152 30 2279 51 2297 90 2355 46 3134 7 2811 26 2694
1507 0.13769515026875812 2.3966493905288764 1.874122012857389 7 8 8 0.11759679417639318 95 2129 97 2029 29 1989
11780 0.039658551225541738 1.7033817027003391 2.1730546696918558 97 72 52 0.37244310632374977 57 2357 66 2671 71 2522 96 1708
1508 -1.217781691891521 2.4445252677462848 1.8213687521276754 125 122 112 0.48162624360833772 95 2139 97 2035 41 2674 64 3033
11782 -0.76086595530000689 2.2743771389820968 1.9305054854285266 21 17 14 0.96944437068595879 91 1999 66 2679
1510 -0.62697206538036598 2.4207097419322845 1.4861766895767197 53 59 81 0.31805177563577064 95 2148 97 2039 41 1454 30 2234 83 2335 51 2280 77 2039 98 2340 90 2266
11783 1.1127073949261297 2.2046792059434255 2.2017307966680728 229 215 178 0.63773227230089335 80 2906 100 3071 66 2739 72 2703
1512 0.16177498795354092 2.478311194020578 1.6825316299868693 87 60 47 0.4362120292800602 17 2189 97 2053 36 1428 30 853
1513 -0.16061855147855969 2.4998488434346426 1.7344758057629084 6 8 10 0.19548322773591273 95 2173 97 2071 51 2357 36 2185 90 2389 98 2517 83 2524 91 2291 9 2423
11786 0.79045775997858392 1.5670176500425108 2.9122949091947428 0 0 0 0.087608150701239285 57 2469 66 2827
1514 -0.12461211689339013 2.5252450401055495 1.7175703166242535 57 64 61 0.66057803301287421 95 2908 97 2072 41 3201 36 808 30 878 51 1502 90 768 98 851 83 874 91 844 9 1737 17 1582 29 2916
11787 0.13498608741026841 1.6242535183711677 2.9815203344740047 101 61 43 0.40996909913141916 57 2171 66 2832 72 2834
1517 -0.71923096659354546 2.5305616430851625 1.492706870799553 60 69 93 0.17767711049605045 95 2181 97 2080 36 2179 30 2299
1518 -0.6979558020759612 2.5761416898138028 1.5541651498313154 47 60 87 0.47942903357916783 95 2931 97 2082 36 2713 30 2324 36 2209 7 638
11791 -1.1617378619277967 1.7211025795033543 1.5914386469099413 217 209 224 0.31937956604360329 57 2511 66 2928 72 2528 22 1747 14 1630 12 2430 71 2474
1519 -0.68380033277945751 2.5372674914119622 1.5380889876228434 33 41 58 0.29661265503186929 95 2187 97 2083 36 2181 30 2822 51 2323 90 2968 98 3032 83 3026
11792 -0.30710304642653613 1.5198888267502209 2.0438498052803515 178 106 22 0.33578006121463205 80 3215 66 2982 12 2767 71 2997 10 2768
1520 0.14097851256742755 0.70868822317588587 1.9287116190141609 128 92 15 0.72144029623713035 95 2226 97 2107 41 2738 36 1469 30 1609 51 1548 90 806
11793 -0.30685172740008032 1.5166072635363466 2.0449763235731111 178 106 22 0.28618448831442395 80 3216 66 2983 71 2998
1521 0.14101592289700651 0.70816972823430036 1.9302867367509851 128 92 15 0.5922064294094106 95 2227 97 2108 36 1468 30 1610 51 1549
11794 0.10853938643414995 1.7027184381395759 2.1578137266337358 23 21 22 0.83666812302607241 57 2356 66 3002 72 2627 22 2089 14 1973 12 3108 96 2015 6 2760 52 2513
1522 0.4977915688162996 1.0672122684905572 1.3705634941326656 146 131 50 0.16776222386128328 95 2273 97 2138 36 2255 30 2367 51 2410 90 1701
1523 0.3883049972009992 1.0465003828492621 1.5251488373464037 107 83 14 0.29290992804821819 17 2949 97 2149 41 2770
1524 0.3883049972009992 1.0465003828492621 1.5251488373464037 107 83 14 0.29290992804821819 17 2948 97 2150 41 2769
1525 0.33181360548538974 1.137486063784199 1.4500669965091775 15 16 17 1.2570663663661867 17 2292 97 2154 41 2189 77 1683 58 1601
11798 -0.1701357403178218 1.4915318215201143 2.0287326115381585 96 84 90 0.16088252522997523 57 2585 66 3256 72 2591 22 2067 71 2984 10 2764
1526 0.1383922636502625 1.0349604272314405 2.0595009907852062 0 0 0 1.6904502935214853 17 2954 97 2157 41 3309
11799 0.025903674496877693 1.5612528875537983 2.1024655314533529 84 77 84 0.4766690510856299 57 2610 66 3263 72 2608 22 2078 14 1718 12 2789 71 2793 10 2575 96 1993
1527 0.31728817651485275 1.2166182174815998 1.5553671028487701 115 93 23 1.2732935085763883 97 2159 36 2833 30 2959 51 3081 90 3362
11800 -0.78817068031944748 1.7938203855653481 1.957896584339762 200 116 18 0.35227680019284541 80 3495 66 3269 72 2911 12 3102
1528 0.81432338167466833 1.2628417834173937 1.6998598796227509 110 93 27 0.37112387633297494 95 2297 97 2168 41 2209
11801 -0.78862906110576148 1.7919521845710156 1.9578480981582291 200 116 18 0.32693952350489236 80 3494 66 3270 12 3101 96 2256
1529 0.91838582062799634 1.2434385323210402 1.7231696064755304 255 236 83 0.68786732946544693 17 2309 97 2169 41 2211 51 1683 90 2475 98 2628 83 3248 91 3043 64 2714 55 3058
11802 0.062838086304100593 1.6236286439962961 2.144798689184193 19 17 16 1.0845942260210921 57 2850 66 3275 72 2919 22 2371 71 3016 10 2796 96 2252 12 2795
1530 -0.67379661798523083 1.3772209145703533 1.4578930121181097 255 236 82 0.99300629218713687 95 3017 97 2171 41 3323 30 1673 51 2437 90 1728
11803 0.040892092921784501 1.5964433196798389 2.1260592934061138 225 167 42 0.6081988670440075 57 2849 66 3276 72 2916 22 2372 61 2800 12 3358 71 3235 10 2943 96 2359
1531 0.28847174548972232 1.3605629454178274 1.6313131504131935 28 25 24 0.60526374143758144 95 2322 97 2173 41 2799 36 2310 30 2413 51 2452 90 1760 98 1152 46 1775 29 2637
1532 -0.64318510811285412 1.5158393756244302 1.2805209933771815 183 135 26 0.31514684545088628 95 2377 97 2224 36 1566
11805 -0.060702108096458533 1.7770398205355944 2.1784775139397201 249 176 43 0.26392743680394548 57 2629 66 3287 72 2629 22 2092 14 1974 61 2472 12 3113 71 3021 10 2958
1533 -0.90989751703272881 1.6060411422828917 1.1582599485269669 255 232 79 0.89166285006072776 17 2401 97 2236 41 2904 51 2456 55 3137 29 2200 7 3072 64 2929 26 2988 60 2875 53 2888 5 2777 82 2826 68 2126 21 2368 59 2711 44 1792 92 1385 33 1587 47 2856
11806 0.020717297684334945 1.9639325143596456 2.2653352868163434 235 161 37 0.4899180702214142 80 3300 66 3300 72 2944 12 3374
1534 -0.62276852013704231 1.5802325878209662 1.2186545200557259 106 92 26 0.22057904873028589 95 2404 97 2247 41 1680 36 2321 30 2421 51 2462 90 2479 29 2180
11807 -0.26124060287352313 1.8466389117223923 2.3634340193043877 18 17 18 0.35578026807941965 80 3542 72 2946
1535 -0.62243450236432418 1.5809375561330306 1.2161722416471406 106 92 26 0.11137292584462384 95 2405 97 2248 41 1681 30 2422 36 2322
1536 -0.20702774146942549 1.4489962654554143 1.9727815859952333 127 76 6 1.783852668681557 97 2250 30 2453 36 2356
11809 -1.201730513442226 1.8540512844443839 1.6693203950874715 255 229 71 1.6693374114722377 80 3785 66 3529 12 3346 10 3037 96 2354 72 2287 28 2155
1537 -0.26797210445690567 1.6531425107209956 1.8252604302050677 175 144 61 0.20457095225622215 95 2427 97 2284 41 2884
1538 0.55935382684372181 1.5384950936736608 3.1573518269449496 159 111 86 1.2371416184782256 17 2412 95 2440 97 2295 30 1850 51 2511 98 3304 83 2711 83 3304 98 2692 91 2519 79 2108
11811 -1.2079019325840719 1.9910203814335981 1.7642874931991996 253 192 51 0.024047378497139713 57 3047 12 3356
1539 0.48986186283644684 1.6146796896702864 3.0929084731584697 85 51 31 0.55066039106750386 17 2430 95 2439 97 2314 36 1741 30 1869 30 2509 51 2523 90 2569 98 2703 83 2723 91 3104 79 3090 50 1730
11812 0.085987858455616129 1.6968489466669197 2.1965381067356997 149 148 167 0.73781193441103066 57 3132 66 3559 72 3162
1540 -1.1221050373401058 1.8007045193757125 1.5234571511248827 123 94 22 0.42081746849645052 95 2460 97 2316 41 2408 36 1650 30 1789 30 2467 29 2338 33 2295 77 2330 48 2089 81 2118 2 1981 58 2245 1 1566
11813 -0.034752432983433945 1.851560255404282 2.235662468773528 247 182 44 0.29931499866304528 57 2861 66 3564
1541 0.43392775924578741 1.7174765205237466 2.9297384846282593 116 105 82 0.50068244103650394 17 3069 95 3093 97 2324 36 2425 30 2529 51 3154 90 3177 98 3329 83 3329 91 3116 9 3468 79 3089 13 2937 49 3024 18 3568 3 2805 23 3158
11814 -0.22516233059243265 1.8506430852829334 2.4041869214916165 30 28 26 1.8094712552175489 80 3728 66 3572 72 3171
1542 0.5021388620826539 1.6619499371249564 3.0437995666868209 234 219 184 0.61738507148459965 17 3057 95 2452 97 2325 36 1773 30 1897 51 2548 90 2587 46 3645
1543 -0.60185919373120467 1.8916131704350492 1.5513763336262216 188 146 53 0.30735143829599088 95 3121 97 2338 41 3028 29 2341 33 2301
11816 0.21108897450432332 0.77886275929577542 2.1118426993395558 228 165 41 0.73383328809954385 57 3120 66 3601 72 3197
1544 -0.16507560827858236 1.8924590873252083 1.7289801171180219 107 88 21 0.19211391077303178 17 2548 97 2339 41 2417
11817 -0.84491735141237057 1.4814780536782712 1.2894539341928468 195 1 0 0.64156514475834481 33 3195 66 3643 72 3238 22 2621 14 2427
1545 -0.035281737068922625 1.8924665790606314 1.6789604716433377 62 68 75 0.59519507970570351 95 2561 97 2340 30 1863 36 1732 51 1909 90 1859
11818 -0.75916998369973676 1.7370346529129475 1.9637378937270638 164 159 173 1.044760867801984 57 3121 66 3653 72 3216
1546 0.37544139255507381 1.7362362703022136 2.9020863895514051 123 109 81 0.23628798312728555 17 2447 97 2344 95 2477 36 2424 30 2528 90 2585 98 3328 83 3328
1547 0.44522777395721391 1.7689901653104487 2.8668964631546654 233 219 182 0.16881327383125247 95 2481 97 2348 51 2580
1548 0.90722951929358231 1.8751564292396632 2.6589697680394471 236 219 185 1.3184146467814453 95 2597 97 2388 36 2444 51 3189 90 3209 98 3594 46 3959 9 4050 29 2263 36 1891 94 3998 87 3964 40 3872 24 3766 15 3262 44 2784 92 2775 33 1707
11821 -0.6829283387566697 1.6762651563769482 1.9331124139642319 215 209 218 0.9362587641419623 80 3885 66 3677 72 3272 61 3021 12 3472 96 2468 10 3080
1550 0.89028284615320386 1.9347857524384926 2.6051554177535028 110 102 84 0.66067504925215248 95 2635 97 2426 41 2404 36 2446 30 2560 51 3205 90 3210 98 3379 83 3402 79 3198 91 3179 33 1756 29 2264 77 1865 48 1665 58 1782 67 2109 85 1878
1551 -1.0092532098052196 2.0552839138319094 1.4173710467998728 166 132 36 0.49582521399781115 95 2678 97 2433 41 2561
11824 -0.30432512114071275 1.8906096185477632 2.6677751501786502 218 202 165 1.9571852061230701 80 3923 66 3699 72 3298 61 3043 52 2707
1553 -1.0514734850584748 2.1147629290110501 1.367225122591857 117 123 150 0.47220874449801498 95 1962 97 2477 41 2598 36 1158 30 1247
11826 -0.68883892175227857 1.7860526193316058 1.6209259960315221 255 241 61 1.1146280208340233 57 3233 66 3706 72 3308
1554 0.065942361566798613 2.1984681578959004 1.784758779055295 36 42 59 0.75785361042340094 17 2728 97 2507 41 1937 95 2009
11827 -1.3771173371359724 2.0601324948554702 1.939412706069491 0 0 0 1.5936705475900173 66 3729 72 3319 22 2706 71 3430
1555 0.25942329927416119 2.177800620942747 1.7710090074119216 109 97 73 1.6904629800205602 17 2733 97 2509 58 1149
11828 0.81481486713324303 1.2681901878695612 1.66818984526633 0 0 0 0.60566321568573356 28 1807 31 2053 66 2515 86 1292 100 1888 57 1108 72 2243 12 2695 10 2245
1557 1.1553373928497268 2.1939711371646533 2.2439740649620945 116 88 73 0.71341573626266841 95 2748 97 2530 51 2896 29 2368 33 1817
1558 1.263122375023942 2.2211467353587122 2.1832823232801757 2 1 1 1.2400923304236784 95 3280 97 2535 41 2539 36 2628 30 2761 90 3513 98 3430 83 3762 91 3528 9 3618 79 3493 94 1827 33 2361 77 2721 48 2504 81 2170 27 2650 50 2151
11831 -0.8089731535008996 2.5756324825312444 1.5622221850072084 0 0 0 3.7964493258587764 17 2898 30 3185
1560 -1.6085265812232801 2.2414164612258887 2.1529320308043376 61 44 32 0.51486615166504834 95 2749 97 2566 41 2587 36 1973 51 2017 46 1879 55 1837 26 969
1561 -1.5538609325723323 2.2272802943537129 2.1581109959365876 73 49 33 0.87430575118581222 95 3259 97 2569 41 2589 36 2979 30 3079 51 3190 90 3196 33 2775 77 2744 48 2560 81 2596 2 2431 58 2657 85 1837 74 1869 62 1883 37 1947 1 2052
1562 -1.3234170061284054 2.2803475996492137 2.0946223210789952 105 102 86 0.093918770683133965 95 2798 97 2583 36 2037
1563 -0.04435363699816533 2.2572559224272548 1.7545067463796777 62 68 92 0.64784654991136803 95 2807 97 2590 98 3381 83 3617 91 3168 9 3494 79 3338 49 2995
1564 -0.05441080557389482 2.2835858966837046 1.7769008756109854 29 37 55 0.79497850846718832 17 2766 97 2591 41 1969 36 2596 30 2726 51 2807 90 2779 27 2360 19 3026
1566 0.031270460042853554 2.3158646910066256 1.8579145695739907 66 73 94 0.43290755260565456 95 2836 97 2594 30 3117
1568 -1.3877837443008969 2.2990607054411782 2.0747011058386953 110 108 91 0.36322129738937303 95 2797 97 2623 36 2034 30 2116
1569 -0.81988580756542495 2.3005632641266218 1.4014375413384152 13 12 8 0.132677084524461 95 2830 97 2627 41 2663
1571 -1.4736296601550014 2.3705868932868044 1.9622537555207755 108 106 90 0.30129935015295739 17 2786 97 2654 41 2652
1572 -0.62340218717387352 2.3920331956314644 1.4685841794737915 56 66 89 0.27918671203016537 95 2147 97 2670 77 2038 58 1893
1574 -1.3829015001317155 2.449141334127602 1.8493596656622195 157 153 136 0.50868790856123214 95 2138 97 2685 51 2172 98 1495 83 1516
1575 -1.1585257758913017 2.4732300756577352 1.7521200293888091 68 65 52 0.082045950658809402 95 2882 97 2706 41 2686
1576 -0.69718227097640284 2.4869064137586281 1.4698372622639988 60 69 95 0.15991576190850282 17 2197 97 2713 36 2675 30 2797
11849 0.13361447170929114 1.133846944761886 1.7209186576803388 0 0 0 0.96962988194653332 87 210 100 1912
1577 -0.17144388042530728 2.5716671518173069 1.6295481587839333 61 67 63 0.99428537928901872 17 2217 97 2731 41 2111 51 2374 90 1624 91 842 9 1736 46 2403 81 2279 2 2098
1578 -0.56521371930639264 2.687625789672706 1.3358630580572293 29 21 17 0.71387743754660449 17 2916 97 2765 46 1636
1580 -0.68954361370022399 2.7456272159271182 1.3321830536276331 107 73 54 1.1226597392987645 95 2952 97 2770 41 2727 36 2237 64 3076 33 2150
1581 -1.0271665937971304 2.809449783832596 1.2838776585292326 95 98 89 0.79569401770144721 95 3411 97 2773 36 2799 30 2930 51 3057 64 3085
1582 -0.96587394475837074 2.8537626254791886 1.1702822752997026 54 36 29 0.52322803001333262 17 2245 97 2776 55 1538
1583 -0.97241392776899171 2.883590702566146 1.1672235755497857 54 37 30 0.31022847196963849 95 2963 97 2778 41 2736 36 3101 30 2938
1584 0.043688293577541476 0.93934560700494107 1.7686056457817054 148 140 113 0.53233150181838174 17 3386 97 2786 26 3093 60 2712
1585 0.051753084195148458 0.97126345779358025 1.7901698810935112 7 12 18 0.33661444839516586 95 2976 97 2790 36 3110 30 3233
1586 0.45856921331994505 1.1112167075018227 1.4395311370995922 110 82 13 0.27697604446349233 95 2281 97 2801 36 2265 30 2374
1587 0.43913664831668053 1.1721083842662954 1.4700290201560182 104 77 14 0.32425829259026145 95 2284 97 2807 41 2191 36 2271 30 1656
1588 -0.14858263305303471 1.1554900416230556 1.7706855071770318 101 77 31 0.7437668613711742 17 2295 97 2814 36 2279
1589 -0.069522527129379924 1.1864536681980848 1.8826294671737867 121 84 16 0.24630745366092779 95 3007 97 2817 36 3119
1590 -0.060246824458327311 1.1575434434391778 1.7908376203587422 74 73 86 0.34499600416287529 95 2286 97 2818 41 2789 36 2838
1591 0.64706182609242002 1.2879885655133381 1.5528374523778961 97 74 15 0.25852868757439706 95 3422 97 2822 41 3319 36 3124 30 3247
1592 -0.751229282804877 1.3759596083017955 1.5190647066887939 255 229 80 0.48553259433165391 95 3425 97 2823 41 3554
1593 0.33880289860351143 1.3096096571290021 1.6638821420264132 22 22 25 0.66402315188324756 95 3013 97 2826 41 2796 36 3128
1594 0.33480660169410237 1.3135545582164658 1.6607518529582221 22 22 25 0.75005636633135653 95 3012 97 2827 36 3127 30 3250 51 3377 90 3373 98 3770 83 3776 91 3539 9 3955 46 3607 79 3436 85 2112
1595 0.19355318513586947 1.5651050295070146 1.6446583861211934 27 34 50 0.14287901296230168 95 3051 97 2851 36 2878 30 3278 51 3398 90 3387
1596 -0.6460744934605811 1.832837873730661 1.6440918348351763 255 213 56 0.2350710100958634 95 3098 97 2894 36 2395
1597 -0.052763038836282 1.8628500689934717 1.6754977530665762 103 92 27 0.55410831252835746 17 3452 97 2901 41 3366 98 3541 83 3548 91 3326 9 3705 27 2285 50 1825 67 1847 85 1987
1598 -0.38412666325970468 1.9803431935178757 1.4678387910229203 163 175 202 0.17415721886062011 95 3151 97 2923 36 2408 30 2517 51 3162
1599 0.61438490374563492 2.0585596876871359 2.4099061089897686 121 111 88 0.35427948208974691 95 3180 97 2939 41 3038 36 2978 30 3094 51 3219 90 3245 98 3609 83 3627 91 3423 9 3860 29 2738 79 3376 77 2393
1600 -0.89971550881557982 2.0952171384381528 1.2990121836993325 110 102 32 0.84811586427797481 17 3232 97 2943 36 2936 30 3045 98 3305 33 2704 77 2686 48 2500 58 2595
1601 0.85924043318430143 2.176017213075812 2.2582314422913408 234 218 182 0.12328879349649527 95 3246 97 2982 41 3431 17 3503
1610 -0.44264369724332275 2.4477192001676422 1.7009973999204928 3 2 2 1.276530280810567 95 3545 97 3043 9 3849 17 3578
1628 -0.9623178431412901 1.7464786605857616 1.1322534929737575 111 101 28 0.20387992102035279 95 3458 97 3189 36 3145 30 3271
1630 0.17997628786593325 2.1999911924901872 1.8131471128551366 2 1 2 1.7827383614125136 95 3497 97 3235 41 3459 36 3209 55 3249
1633 -1.4653120603946475 2.3385253871406273 2.0232402357120511 213 202 169 0.28584405655515105 95 3520 97 3249 51 3232 90 3211
1638 -0.17998643872935355 2.4928564435145004 1.6452818374281599 5 6 7 1.3001250180020538 95 3554 97 3288 49 3008
1644 -0.88039732022877248 1.5256223592547618 1.2665797501209906 168 128 36 0.87364084739002446 95 3603 97 3341 90 3370
1670 -1.2138677860419005 1.6411526462977746 1.4199150358724983 0 0 0 1.5392798893928763 95 3829 97 3551 41 3802
1678 0.50816586190836077 1.0830211893128299 1.3583984166781671 97 78 15 0.34319772091916895 17 855 41 44 51 21
1695 -0.68542094416054766 1.9772854432163443 1.4302085619305924 63 73 99 0.14373377509588384 17 387 41 469 64 593
1698 -0.92176035274545909 2.0746379247825621 1.2917796548623954 117 100 29 0.30353896755549503 97 395 41 558 36 434 30 1207 51 329 90 347 98 373
1713 -0.91646127601056004 2.3648260398990337 1.4477039935689187 75 70 59 0.4150037781079588 95 694 41 715 64 772
1718 -1.2157229488245509 2.5268703562760901 1.6655624224353782 94 98 89 0.055753936232554979 95 791 41 778
1730 0.10632192514139163 1.350428767752883 1.4552971096738792 102 90 30 0.50835498277533553 17 1697 41 946 46 1756 7 986
1744 0.2152010310390651 2.2515884985585539 1.8773949572135751 3 4 6 0.025044838335616632 95 1431 41 1295
1747 0.81170612635379213 2.3320521376112673 1.9773439211295816 107 79 69 0.13360288338637422 17 1437 41 1343
1750 -0.87607146480901865 2.3024920922496874 1.422509203846072 84 78 22 1.2629917521097171 97 1399 41 1414 30 1358 46 494 98 502 64 1403 77 1278 58 477 51 478
1756 -1.2742800056939521 2.5460650945212913 1.6323190422141816 93 97 89 0.30518230964760884 97 1507 41 1514 36 1406 30 823 64 1464
1769 0.92557860690479699 1.9196399668979238 2.6339506431752548 127 116 93 0.36618472478354358 17 1883 41 1753 46 2016 7 1873 87 3016 94 3103 40 2969
1791 0.077973932606419383 0.98698284478754272 1.8302564428500756 132 89 14 1.2800250973449501 95 2978 41 2176 36 2822
1797 -1.0525667697548458 1.4417285267375493 1.3985571522695595 255 242 82 0.51750204812543266 17 2325 41 2234 51 1642 90 900 46 1706 55 3059 29 2175 64 2824
1802 -0.28093193043665182 1.7234661869407795 1.7329863549853501 126 93 19 0.49752073053825679 95 1796 41 2349 64 2832
1808 -1.095959951490868 1.9554334468562389 1.5718726477656051 219 176 47 0.3836175822145505 97 1810 41 2517 29 2403 64 3275 4 3100 78 3200
1822 0.42456629375735033 1.0783058686292888 1.4918773405237356 106 85 17 0.3864827705616195 17 2287 41 2779 36 2262 30 2371
1830 -0.092830458014423356 2.4745282616246991 1.7585614069920745 4 5 8 1.3291278341260098 17 3303 41 3173 98 3116 83 3109
1831 0.1335760104875183 2.45423419583231 1.8718673113352 78 59 49 1.3025407428853801 95 2895 97 3280 41 3176
1841 -1.2358585802884638 1.8814597727356075 1.6747262750603016 0 0 0 0.51422763514904724 97 3208 41 3371 36 2900 30 3291 51 3412 90 3407
1844 -1.2573812051594193 1.9131708842628474 1.7128418598549677 173 180 204 0.40166030736824276 97 3376 41 3382 36 3310 30 3437
1847 0.22568981818578118 2.174200613014508 1.7940015513074026 6 6 8 0.52532403708324116 95 3230 41 3443 36 3208
1864 0.4244342784404489 1.3159888176171444 1.6911471337469521 0 0 0 0.64425691564055354 17 3734 97 3444 41 3652 30 3414
1873 -0.81808766695831137 1.5843051116201945 1.1312313031634871 212 174 49 1.7953851869574797 17 3838 41 3773
1885 0.11262289664356284 1.4305112910968711 1.447920936325791 84 98 129 0.37246351680203121 97 106 36 102 30 133 77 950
1886 -0.048865065685445734 1.7182567730426368 1.4843684725441122 20 22 33 0.25885220293969602 95 263 36 229
1887 -0.61290493953383196 1.8377909954534113 1.4567910670088091 252 206 56 1.1942914990644169 97 1160 36 307 30 331
1888 0.11706188430253467 1.747016272703579 1.9085443358343295 111 91 23 0.65567832274671523 95 266 36 331 90 310
1890 -0.81752239828382589 1.9354934244614399 1.2409543009173862 76 92 125 0.71711677755764391 95 360 36 341 91 263
1905 -0.54073949442675129 2.391091413647731 1.5341962654669894 13 15 23 1.0514783795138443 97 688 36 709 30 735 90 627 98 668 83 1594 91 595 9 1506 29 670 85 988 27 452
1908 0.69520618252644328 2.3679269435082904 1.9146693193163735 89 61 47 0.20161651570343569 95 684 36 743 30 820 51 734 90 746
1909 -0.69011897438821324 2.4779594452670834 1.4674414225887646 59 68 91 0.42722422745470268 97 768 36 763 85 479
1911 -1.1567607429358047 2.5076794594293483 1.7018201267773132 94 97 89 0.037391780610599515 97 757 36 788
1918 -0.24652727856843731 1.7534191884704993 1.6865461351079054 120 87 16 0.13962809488267627 97 1134 36 1061 30 1133
1921 -0.59970353897926298 1.8608206275862413 1.5773676688908373 242 193 51 0.43477664560343043 95 1849 36 1080 30 1155 51 1837 90 1166
1964 -0.95010451455177802 1.6033698449959757 1.1533004064378007 159 124 26 0.55879792727868682 97 2234 36 1589 30 1724
1967 -0.097432590896928392 1.8176400708357059 1.6636650202454175 84 59 10 0.072620740361041491 97 2321 36 1714 30 1843
1973 -0.56344120899930095 2.1953874618635352 1.4319647242318947 40 23 2 1.8133052307049602 97 464 36 1895 30 2020 58 2616
1985 -1.3663869989883615 2.2930854494426525 2.0748883346096423 104 94 71 0.18184327769839018 97 1921 36 2035 30 2118
2000 -1.1148131410495277 1.8282919873815342 1.5399003236714515 126 90 19 0.1314270704908039 97 2317 36 2380 30 1814
2012 0.0041635904458157402 2.5518242170638796 1.653064006144477 26 19 17 0.27308828345608949 97 3065 36 2714 30 3186
2029 -0.92696549076055446 1.9958062325782204 1.2252384935002028 79 82 108 0.26439647960955387 95 3168 36 3173 30 3026
2038 0.22218379581361528 1.5936114091018674 1.680734434516536 107 91 25 0.28867594815979281 97 3356 36 3366 30 3494
2044 -0.72523743255009332 2.1921410088010322 1.4132606878894602 98 88 25 1.8781700717862448 17 3827 97 3535 36 3435 30 3570 98 3941
2058 0.32876712857850943 2.2975234462562737 2.0201748918883027 219 204 168 1.4213475727279359 30 3613 90 3782 77 3169 36 3472
2059 -0.037540262055589108 1.0923914762548819 1.775392867584868 23 21 22 0.082696899223341974 36 47 30 41 51 35 90 38
2061 -0.1799758316046064 1.1929628790657227 1.9268546864352134 19 16 13 0.6222342161503891 36 74 30 78 51 53 90 913 98 116 46 70 55 51 77 99 58 945 85 80
2069 -0.42002414740133909 1.8275798764497913 1.5990031372875486 173 117 18 0.70496403356322512 36 1056 95 326 30 345
2071 -0.68133707737230309 1.9038293765957965 1.5172911542322256 165 118 21 0.017952549941716238 36 368 30 364
2076 -0.37608506961199029 1.9472522084078971 1.5124950588400947 113 100 32 0.29098107917938482 97 328 30 411
2086 -0.23130870202881981 2.1413722768804226 1.688271523764574 10 7 8 0.28368864406623323 36 524 97 1312 30 529
2087 0.24415093661344175 2.1401499690762913 1.4254979457334904 235 217 175 1.7161200968872714 36 505 30 538
2093 -0.82653116339296295 2.3397106718738092 1.5182025892408126 56 71 99 0.78685257224476901 97 624 77 593
2096 0.071132532509965513 2.2462636928073176 1.8190283750731606 18 21 30 0.19206005871682486 36 615 30 642 77 554
2097 0.23854726983463584 2.2476885049662183 1.8336450247348848 220 201 163 0.13352299731904568 97 559 30 647
2099 -0.15179653605224908 2.3066261756590802 1.7124616042760923 61 69 92 0.095266432721531819 97 591 30 686 90 594 83 701 98 680
2101 -0.14065921884411203 2.3019476608096969 1.7195279916960369 6 7 7 0.038764820607740946 36 661 30 688 90 600
2102 -0.12846787550722405 2.2881556013408582 1.7174599136751048 11 10 12 0.1096152557967995 36 601 30 689 51 538 90 595 98 686 83 700 91 662 9 700 79 704
2103 -0.045465313443303457 2.310371748920037 1.7974305762837839 43 47 61 0.04263232077614728 36 666 30 696 77 620
2104 0.18406883240663638 2.2793417763483066 1.90239291098388 4 4 5 0.18101770452563956 36 679 95 644 30 704 33 500 77 625
2105 0.1787568509743466 2.2959061760965036 1.9542618561742675 207 191 153 0.24141767167893735 36 681 30 706
2107 -0.7931802104050707 2.4338440044424439 1.3686591799278274 53 58 76 0.010311220791237665 36 703 30 728
2108 -0.61276303557272771 2.3898852526743695 1.4596249418984832 57 64 87 0.22033583095562911 36 705 30 731 51 582
2112 -0.53160568130973873 2.4030193113321361 1.5261370250337791 58 68 91 0.38516591177556397 97 690 30 743 90 628 27 453 50 367 67 389 85 408
2139 -0.53256949786892538 1.5988690157774841 1.3312513965180508 228 176 45 0.57086631317908754 95 180 30 1024 51 1766
2140 -0.29343642779448609 1.4172332173927178 1.919818248811618 66 32 1 0.021687058973861667 36 163 30 1028
2146 0.14314896844244657 1.5981238995061646 1.6501934818894903 86 56 7 0.14504818918132836 36 1635 97 1677 30 1063
2149 0.0053985193047945412 1.6555677630996009 1.7153011273338949 119 75 7 0.21724682556284669 36 1026 30 1083 90 1113 83 322
2150 -0.96992929917238657 1.7260693604520234 1.7900262110065333 167 116 25 0.093742839001572112 36 1032 30 1087 51 1023
2162 -0.82147443905086948 2.2225979521135186 1.4483084163190503 62 65 77 0.236276409652973 36 545 30 1290 90 470 98 472 83 488 46 1259 51 1281
2166 -0.010716601055406685 2.1792816734975204 1.7250202338153551 58 63 81 0.29885878759333639 36 1217 30 1328 51 1323 77 1212
2177 -0.10114732329251998 2.2849715267977642 1.7470314814418211 59 66 88 0.34273250592157745 17 599 30 1421 51 1351 95 1418 98 1582 91 1477 9 1572
2183 -0.57105074615261708 2.3780657711899558 1.5063241605399829 59 65 87 0.29787255589278444 36 1298 30 1482 51 1400 95 1473 90 2225 83 1551 91 2122 13 1806 85 1517
2188 0.15859004679018049 2.3153974534184445 1.9151608439959065 205 186 145 0.14894967681961938 36 1310 30 1501
2198 0.92181072294672639 2.3317843995883423 2.0313543263911282 87 87 82 1.5874472401934328 95 687 30 1548
2200 -0.60294721955680874 2.5309287043106168 1.5945972161384123 55 65 89 0.080468632987743996 36 1424 30 1559
2203 -0.70426134275534225 2.7748204241856689 1.2910903243935621 58 35 26 0.23020224900748959 36 1464 97 1569 30 1603 51 1543 90 1647
2205 0.41890040946635654 1.2876713570418912 1.4801152715048973 113 100 27 0.08203094148069856 30 1667 29 1584
2217 0.36792464806259861 1.5956697630803953 3.0638948489103131 159 113 88 0.20249033598343283 36 1736 30 1867 90 1866 83 1995
2219 0.59171935232204909 1.5530429107444179 3.1664270778577031 160 112 84 0.37395871262256802 36 1127 30 1873 51 1848 90 1872 83 2027 98 2022 27 1244 50 1487 67 1110
2221 -0.66508630229423849 2.0317712558423384 1.3210512247566732 116 96 22 0.33682040488755804 36 1755 30 1884 51 1943 17 2655
2223 -0.3699301260406459 2.0161281186476199 1.474049236089559 65 75 102 0.9183526368850955 36 1760 30 1888 33 292 77 1836 48 349 81 335 58 1748
2229 -1.5194124854935245 2.2311876181364454 2.1596784325632279 220 209 175 0.11474975293853303 36 1976 30 2055 90 2036
2230 -0.005028498860144559 2.1985399463381587 1.7476982159947971 56 63 85 0.076350567724018742 36 1952 30 2070 51 2140
2233 0.058481532802911018 2.187860845305134 1.7347304948933102 59 68 92 0.10706192676859125 36 1956 30 2076
2239 0.16686252190851084 2.2042271630466148 1.8758674989939612 43 51 73 0.35499905568098361 97 1355 30 2135 58 1192 77 1938
2241 -1.4208776573495894 2.3305898780740657 2.0262496291417569 152 148 135 0.29398686109653471 36 1271 30 2156 51 2121
2249 1.1731994803364767 2.2216412257297051 2.1557699247143449 111 81 69 0.393462027478789 36 2066 95 2785 30 2194 51 2899 90 2944 98 3181
2254 0.12737888400015282 2.3538814739448086 1.7601581281548513 4 6 11 0.46603392059100035 97 1988 58 1903
2255 0.75158844741335018 2.3332857325051588 1.9736381282534221 32 21 18 0.28300721882078878 36 2129 30 2257 51 2312 90 2400
2267 0.4045850524535709 1.2229288903332269 1.4955745020827504 119 111 45 0.15087361554227546 36 2277 41 2202 30 2386
2283 0.85291942648217189 1.815536890748086 2.7632793936857096 0 0 0 1.3275352449888584 17 2496 30 2541 51 2637 56 2929
2290 -0.055780026775720193 2.2822993236406357 1.772435165660371 20 25 38 0.0099997647476941058 36 2597 30 2727
2305 -0.96640732796470763 2.7915346822724678 1.318290564479891 94 96 85 0.2185492083049542 36 2802 30 2932 90 3060
2310 0.34198624746676654 1.2204042854658044 1.6171366514284145 23 24 26 1.3138749438506414 17 2973 30 2960 51 3372 55 3044
2325 0.37530185298585561 1.6460557960321396 3.0257797578317627 70 43 28 0.25767893714081563 36 2924 30 3037 51 3419 90 3167
2329 0.072531343104165924 1.9391188719211667 2.0044664883694536 86 52 9 0.30469030869252994 36 2939 30 3049 27 2492
2335 -0.43058425594272032 2.3001721058761464 1.6168634029729527 80 63 15 1.2293202020596157 36 2983 30 3101 19 2954 79 3312
2342 0.51019265808047598 2.3448930705798308 1.920487478729304 45 32 25 0.97392236494498086 36 2658 30 3161 90 3315 98 3169 83 3176 91 2972 9 3585
2351 -0.58581336475226431 2.6980747223282 1.3308532901623005 105 73 54 0.2526952706623421 36 3080 30 3200 90 3328 98 3439 83 3467
2352 0.045070850029501675 0.88109918627014561 1.8384276156336146 0 0 0 0.5091041276245809 36 2816 30 3226 51 3350
2355 0.1224716154570589 1.4667962406809327 1.4322408596239382 77 93 125 0.087105560075658769 36 3132 30 3255 51 3389
2407 -0.77590356471552746 2.8139060847152768 1.2689588965071268 63 44 34 0.7648619720141675 36 3396 30 3537 51 3723 90 3690 98 3858 83 3866 85 2348 27 2698
5521 -0.027129714975065208 1.8441297693871561 1.8109659968376091 58 57 69 0.11541662155718323 87 2729 94 2179 40 2721
5523 0.46843969136681429 1.5985966539275454 3.1174913650742631 148 100 76 0.056400641152822367 87 2736 40 2747
5527 -0.18164063917894657 2.4857181449582542 1.7706902495934906 3 3 3 0.13295501894559192 87 2852 94 2958 40 2822
5528 0.11493225667163162 2.1715904069790684 1.8299984540538683 49 51 58 0.9912380078318197 87 2853 40 2824 18 2804
5530 0.19602453190192845 2.2884703119688505 2.0515323617417867 228 205 159 0.15709225017654779 87 2905 94 3002 40 2872
5532 0.87925595202468221 1.9054403621112224 2.6404428668901567 130 125 111 0.094090931924336596 87 2987 94 3079 40 2967
5539 -0.82448263646895881 2.5120603250354367 1.3971805841863243 2 2 3 0.41591729804968947 87 3278 94 3328 40 3185
5540 -0.38233064804980488 2.1420543209985388 1.5315321311431391 4 3 3 1.0068053024720409 7 3174 87 3556 40 3206 93 2712
5542 0.71720251238821142 1.2040055460834991 1.7953291986460063 255 229 71 0.26150246172063474 87 3324 94 3418 40 3295 24 3348
5544 -0.16246274486155948 2.5527659877923634 1.6495204438689621 89 98 98 0.63153708026867339 46 3193 40 3330 88 2233
5549 -0.14035606049498128 2.931230491984183 4.8827152594196477 0 0 0 0.62975726938893561 87 3599 94 3633
5550 -1.1401356434690588 1.4893717177605241 1.3783797371255593 255 236 74 0.32084815099473424 7 3409 40 3535
5551 -0.82870833811800393 1.3810799943778422 1.5104746788431689 255 238 73 0.6503876654691807 64 3395 87 3658 40 3539 24 3400 26 3429 15 2919 93 3202 70 2795
5552 -1.664873605818906 1.9938224412603458 2.4200379408004613 0 0 0 2.5486495288951962 7 3410 40 3540
5553 -0.69112865073657814 1.422496541179572 1.4157746681496108 255 242 71 0.13893081274841776 87 3463 40 3548
5554 -0.94856503622954613 1.9307903511725124 1.1971183308746793 0 0 0 0.49405172988668922 87 3923 40 3565
5555 -0.35544336296830725 2.093644333340356 1.6009002153734273 102 72 14 0.011106504453405941 87 3714 40 3598
5559 0.41435564364363753 2.2289755982999857 2.1959575856400098 232 213 172 0.10370550569533227 87 3799 94 3817 40 3689
5561 0.48286031040897759 2.1966974713299465 2.2065462351976337 233 215 175 0.19372498142278025 87 3822 94 3837 40 3711
5563 -0.82599634897530161 1.3895357238902444 1.2995215602287074 255 225 69 1.3467034158944815 87 3657 40 3797 93 3418
5565 -0.53488232349234466 2.49089460121689 1.5734542398927873 1 2 2 0.38042029816319028 7 3672 40 3847
5566 1.1769759870882182 2.1947310087007108 2.189147301576329 105 72 59 1.1418699020091001 7 3606 94 3923 40 3884 24 3777 26 3402 60 3268 53 3020 15 3269 82 2932 34 2835 5 2587 78 2858 54 2968 59 2625 68 3140 44 2763 92 2652
5567 -0.74749195601738849 1.4343030645867256 1.6737325440855748 213 216 236 0.36072488664456831 87 3907 40 3888 93 3786
5576 -0.7519470301172313 2.7066664314238262 1.3972728796747937 104 110 106 1.1591790448664967 95 883 17 784 41 2146 55 2951 29 1520 7 1477 7 2874 64 2180 87 1394 94 2878 40 3249 36 3268 30 3195 51 3550 17 3367 90 3552 98 3737 83 3443 91 3187 46 3865 24 2632 26 3233 60 2124 60 2673 53 2199 53 2637 15 2564 93 2223 93 2711 82 1506 5 2042 5 2847 59 2529 21 1701
5579 0.29293434258523154 1.0733649162070826 1.8680854587926656 255 242 63 0.13549134177804473 87 1098 40 271
5583 0.4280043399626362 1.1573875103452385 1.8651125372244997 229 127 10 0.060413016217265775 87 1218 40 1212
5584 -0.26201859838719921 2.6288536353201426 4.4480150081000511 255 236 69 2.6435529610207982 87 1386 40 1372
5585 0.044651601541674968 2.1480864838555238 1.7448002875572939 55 60 80 0.018662632825386334 87 1500 40 1476
5586 1.156492495759295 0.068556752889610037 0.25285747027325689 135 70 9 2.0664830489117216 94 2721 40 1825
5595 0.31559905875776628 1.0656905509281216 1.9205202589783921 255 221 54 0.28902446969854434 87 3930 40 3832
5596 -0.53294042055518431 1.5105888097992666 1.3245472491576622 138 108 26 0.12147629826202626 40 922 24 81 94 1895
5597 -0.70622941092810532 1.8110622557864007 1.658117504955513 170 102 13 0.11167812636356239 94 1049 24 138 40 989 15 137
5601 -0.35827732917598343 1.7465114006467048 1.707469898324891 139 103 24 0.16215478428777425 40 1116 24 292 26 1098 15 264
5617 0.51488923362344519 2.4584443487051035 1.8532792100446553 90 90 86 0.31396069989153685 40 2425 24 859
5621 -0.7935088525887396 1.7289322882039997 1.723599130508964 117 118 135 0.74741581874143825 40 929 94 988 24 1055 93 82
5634 -0.22384043576283977 2.1358688824182579 1.6831904948330705 8 5 5 0.18648871392419286 94 2227 24 1360 40 2082
5635 0.35793757431102391 0.93529277281868883 2.1873030148974482 255 206 54 0.2097284490818688 40 234 24 1395 15 1382 93 1339
5636 -0.049033046324177203 1.9140585946456485 1.8319803467109244 103 68 10 1.3877377214703646 40 532 94 554 18 438
5637 0.47398901673710081 0.94410620045541016 2.196740083124141 0 0 0 0.064806223087868167 40 345 24 1509
5644 -0.60234746012040441 1.5844747412409523 1.2430057574326208 253 205 54 0.073009786203806784 40 1772 94 1893 24 2054
5646 0.13776646563483194 1.3425040634616483 1.5038662143700448 124 105 28 0.34014249769297572 40 1923 94 2052 24 2228 15 1912 93 2188 44 1077 92 1533
5654 0.14968995048743158 2.4680910650860435 1.7424438301982439 106 73 57 0.61349669376070926 7 2198 24 2819 26 2237 15 2411
5668 0.62375436022039743 2.2563888631624773 1.9654373904796609 106 72 59 1.9753068546183215 7 3386 24 3387 93 3378
5669 -0.8844663369420801 1.4540247637409545 1.4329578579179083 255 247 67 1.6672068752973228 40 3374 24 3398 15 2918
5673 0.54916635380413903 0.86909477495279186 2.3017475366923748 255 230 72 0.63180750363023297 94 3562 24 3460 40 3440
5674 0.36081939829348819 2.3260751097930257 2.0251979466884658 231 211 168 0.14080639964263875 40 3706 24 3514 94 3832 15 3001
5685 0.45075843603865584 0.92388728853020941 2.2520240956258011 150 108 23 0.26703764536596702 7 748 26 22 60 21
5689 -0.36228807453217571 1.3858613507198769 1.948436530349315 241 207 85 0.61298602295135562 64 149 26 92 60 858
5700 0.32183866395837335 1.3857534436160119 1.6519525123182011 70 76 96 0.27735149003728538 7 271 26 337 60 282
5703 -1.272779407492479 2.5714491015110506 1.6238555784669564 78 80 74 0.44706048635534024 46 548 26 534 82 822
5708 0.14749026565625964 2.1822421316211589 1.8593944086841521 11 12 17 0.97196003825742761 40 726 26 607
5710 0.096063011198056769 2.4176731127821478 1.8633982579271222 54 62 60 0.12515945929559516 7 667 26 696 60 602
5764 -0.5780332638593505 1.5230353140928783 1.2999829643106373 147 103 20 0.24630162994707797 87 1790 26 1871 15 72 70 49
5778 0.31673053124297823 0.94640477017944769 2.171353436054368 140 76 11 0.1126898626367228 7 2273 26 2271 60 2154
5781 0.64972572871179968 1.1078385645147744 1.9477476873705497 0 0 0 0.4562928503850377 7 3016 26 2340 60 2201 53 2712
5787 -0.49532053578053692 1.7054867093993609 1.3720028281104715 94 70 14 0.08490203244463175 7 2486 26 2450 60 2385
5788 -0.49532053578053692 1.7054867093993609 1.3720028281104715 94 70 14 0.08490203244463175 7 2487 26 2451 60 2386
5789 -0.45367251102151229 1.8229875867135681 1.5717043949546199 255 222 64 1.5537352109853242 94 2748 26 2453 53 2869 60 2877 44 2440 92 2349
5790 -0.065526580644411164 1.6129374761506394 1.5164090878341909 162 146 53 0.45434990883799692 7 1802 26 2455 60 2345 53 2526 68 2237 88 1751 32 1812 11 2164 45 1047
5791 -0.094518844778686453 1.9724873381701999 1.644913563302987 62 53 44 1.2870856941937336 7 1877 26 2537 60 1901
5792 0.039432674584217953 2.219528975743541 1.7929188107454404 15 20 29 1.1145549936329224 26 2635 60 2542 93 2829
5793 -1.1173168340023372 2.9054058724229375 1.494889883744277 88 95 93 2.5913186347255359 7 2870 53 2640
5794 0.12424772481050475 0.76432632683243729 1.9589085381933142 128 97 19 0.095990306072709752 7 2249 26 2791 60 2141
5795 0.36012081946022445 0.95383616725728526 2.1791319490135659 189 113 29 0.27175871077194735 40 3091 26 2804 87 3146 60 2697 53 2664 88 2379 68 2642 44 2049 92 1977
5796 0.4116700989437565 0.95537673992894634 2.1606858858148619 163 103 25 0.24136572229804823 7 2290 26 2807 60 2700 53 2666 68 2673 88 2352
5797 0.56995025659604581 1.5614682843236358 3.0593361675455215 255 230 67 0.31989740429577085 7 3014 26 2853
5798 0.59726847918965698 1.1020849417439409 1.9412208485252884 198 123 27 0.35479310704934341 7 3012 26 2881 60 2755 53 2711 43 2658 32 2665 76 3047 25 3027
5799 -0.34722600934594139 1.6564434651802775 1.8423283108570481 130 96 26 0.56035598391316521 7 3080 26 2953 60 2819
5800 -0.3118162324234916 1.6884430090627576 1.7888094696566477 129 98 28 0.25281750282955073 7 3098 26 2966 60 2836 53 2842
5801 0.54163153149400656 1.0412356821407573 1.3492624821650847 255 253 106 0.31488111853589662 7 3060 26 2970 60 2822
5802 0.66994703609178141 1.2395035565497214 1.7307430618643125 255 232 64 0.13832533353307774 40 3291 26 2972 94 3411 60 2825
5803 0.011764469510223391 2.1555972580230311 1.7666403591521889 8 8 13 0.34025661887170228 24 3087 26 3027 60 2898
5804 -1.0038294221350841 2.7354395322848393 1.3835415155066528 125 129 121 0.2128138381746407 7 3200 26 3060 53 2913
5805 -0.44913191902688754 2.6405717671591487 1.462523983769463 26 25 30 0.43129314683791242 7 3212 26 3070 60 2939 53 2908 82 3063 34 2737 68 2192 44 1469
5807 0.097548114348723042 0.73540785906411399 1.8883184566593736 177 143 38 1.7547500532636136 55 2973 26 3077 60 2949
5809 0.27808755981102939 0.90861055437120475 2.1641523590933218 161 100 19 2.1674283246464485 7 3223 26 3084 60 2955 53 2921
5811 0.37645205804670878 1.021081219539028 1.5613820076650378 148 131 40 0.23157863759429287 7 3246 26 3117 60 2982
5812 -0.149988372221661 1.6215042183643267 1.908711521676856 138 115 40 0.6797809135608549 7 3284 26 3128 60 2993 53 3001 88 2882
5813 -0.477742013729203 1.7504579892524443 1.7055619676306275 249 200 61 1.1208737612343647 7 3097 26 3138 53 3047
5815 0.91834474418560796 1.2422650206506389 1.7256004060268131 255 231 71 0.077826675220391162 7 3306 26 3144 60 3002
5816 0.82209969694605567 1.289849119300768 1.7030468829951075 255 230 70 1.2377678198921784 7 3317 26 3152 60 3162 53 3156
5817 -0.51565225397247838 1.9538578855130384 1.4495595948427409 63 62 73 0.93417861987565309 46 3722 26 3176 44 1846
5818 -0.57621182986663955 1.9891567800636369 1.3952713219994481 253 206 54 1.0821947714943723 64 3271 87 3223 26 3182 60 3054 53 3088 5 3060 21 2671
5819 -1.2539544277310686 2.6095636680908876 1.6072632265529998 119 122 116 1.4713923918119896 55 3741 26 3189 60 3079 7 3368 53 3259 82 3232 34 3284 5 3296 78 3307 54 3463 43 3295 59 3068 32 3149 21 3010 76 3457 25 3455
5820 0.18655788299559187 0.72469266181420167 1.8616765568394622 127 112 29 0.48976601803920622 7 3219 26 3241 60 3112
5821 0.50889934896477051 0.97521390671232877 2.151683392491353 255 229 68 0.36892896045205931 7 3232 26 3245 60 3117 53 3114
5822 0.57916420144652037 1.0450729648804264 2.0537420497482941 255 233 68 0.86370767382799829 7 3241 26 3250 60 3122 53 3116 82 2877 43 2899 76 3533 25 3531
5823 -0.81802714228528783 1.4574027830747518 1.3507252057392276 255 228 71 1.3347354489182239 55 3618 26 3268 60 3157 53 3324
5824 0.3098845687312185 1.0736703495063913 1.445532436443256 36 42 50 0.59784461938423294 55 3335 26 3274 60 3150
5825 0.49077831722514964 1.0279850947813831 1.3965288545663923 132 114 31 0.74647717003967762 7 3421 26 3281 60 3151 46 3263 53 3155 82 3114
5826 -0.23155363744956575 1.658797687383416 1.8288701571414292 152 122 36 0.90372543474566303 7 3439 26 3284 88 2886 11 3136
5827 0.31986474929488262 2.2030887868352433 2.2111025441679542 228 209 166 0.11591813454820472 55 3684 26 3321 60 3187
5829 0.85704567143799881 2.1810204604894579 2.2619953101177064 235 218 178 0.21197737950453963 7 3566 26 3375 60 3224
5830 0.91875047955352518 2.1603145638400796 2.2875771807937566 234 217 179 0.096266189276864547 7 3567 26 3376 60 3225
5832 0.61291764811689731 2.3697411020006487 1.8753970072468673 61 43 37 1.231139005544458 24 3600 26 3411 60 3290 53 3073 82 2974 34 2898 54 3036 4 2483 43 2955 59 2374 88 2679 68 2947 21 2339 70 2758
5834 -0.81265266054371332 2.8243599987097547 1.2435273456158311 134 91 70 1.6060918115474445 24 3237 26 3420 60 3107 93 3252 82 3234 64 3555 34 3192 5 3295 78 3221 54 3370 4 3116 43 3276 59 2986 88 2922 32 3232 21 2942 70 2458 47 3070
5835 -0.75207079050001491 2.8041272088334668 1.2711708335186938 127 87 68 1.6111779136413653 24 3238 26 3421 60 3304 53 3274 93 3253 82 3231 34 3189 5 3293 78 3214 54 3363 4 3111 43 3270 59 2983 88 2918 68 3018 32 3231 21 2939 70 2466 15 2242 65 2676
5836 -0.23588648920953356 1.6054172172435712 1.9186908615759706 185 162 56 1.5207988995959087 7 3632 26 3449 60 3317
5837 -0.72414589886517322 1.4758816243337356 1.3356919890261827 255 235 73 0.82316244632876645 64 3490 26 3454 60 3337 53 3335 82 3289 34 3143 88 2996 68 3166
5838 -0.20752323207115964 1.6502153849535162 1.8841297658869747 200 172 57 2.3383174264341626 7 3642 26 3458 60 3326 88 2964
5839 -1.0734927554130316 1.5911464351959048 1.195805638472871 255 228 74 1.0632466370768516 24 3394 26 3460 15 2912 44 2789 92 2491
5840 -0.54638007127082544 1.5364848053074536 1.3187621265100804 147 105 19 0.7129627805930564 7 3639 26 3470 60 3168
5841 -0.55693367854554232 1.6131113972787408 1.2666457843788217 54 68 96 0.41389703795705612 7 3720 26 3485 60 3359
5842 0.7916324151222256 2.3291988012815845 1.9732943574411872 100 70 58 0.69721050107047056 24 3827 26 3497 60 3282 53 3223 15 3252 34 2888 82 2960 78 2892 54 3020 4 2475 43 2935 59 2349 88 2829 68 3116 21 1870 44 2662
5843 -0.76998651219931113 2.7554895065159775 1.3644296043347364 67 50 46 0.52456036682927731 24 3703 26 3504 53 3366 15 3193 82 3331 34 3274 5 3377 78 3298 59 3059 88 2916 68 3177 21 3007 44 2601 70 2813 65 2868
5844 0.12121157882264849 0.85463307954699386 1.7634905030783337 192 203 228 0.2583073937313678 7 3613 26 3505 60 3373 53 3374
5845 -0.92727942970030486 1.4953664189518789 1.3102852513709995 255 232 69 0.56640973406736184 7 3623 26 3518 60 3396 68 3222 34 3351
5846 -0.17815840135889244 1.584203291625381 1.9150898385865707 115 67 10 1.027885826050297 7 3633 26 3520 60 3393
5847 0.79569581157360891 1.2334674861382307 1.7706479453730721 0 0 0 0.5214641379761763 7 3644 26 3531 60 3395
5848 -0.93101781408077344 1.6621778845438828 1.1017730625640152 255 227 71 1.044166702950301 7 3717 26 3539 60 3411 88 3080
5849 0.40273150091027887 2.4154075343705275 1.7758806123791384 99 69 57 0.88054241897900309 24 3823 26 3561 60 3426 15 3242 93 3846 70 3082
5853 0.21382501981653321 0.85460683661914216 1.7867475807522359 152 136 40 0.53801284787638837 7 3773 26 3605 60 3486
5855 0.66111468262671247 1.0759324038508151 2.0140855420307733 0 0 0 1.0352604153748337 7 3781 26 3607 60 3473 53 3461 43 3474 82 3418 32 3494 76 3811 25 3806
5857 -0.79701097995669812 2.8691614689135596 1.1763383996641601 0 0 0 1.7452445582342153 26 3628 60 3499 82 3446 34 3388 78 3414 54 3561 4 3286 43 3504 59 3165 15 3343 88 3136 21 3101 65 2949
